-5.585771560668945312e+00,-6.119649410247802734e+00,2.295283794403076172e+00
-5.153378486633300781e+00,-6.124382972717285156e+00,2.217303752899169922e+00
-4.748785495758056641e+00,-6.128812313079833984e+00,2.147823333740234375e+00
-4.368170261383056641e+00,-6.132978916168212891e+00,2.085850715637207031e+00
-4.008336067199707031e+00,-6.136918067932128906e+00,2.030559778213500977e+00
-3.666544198989868164e+00,-6.140659332275390625e+00,1.981260299682617188e+00
-3.340445041656494141e+00,-6.144229412078857422e+00,1.937370538711547852e+00
-3.027979135513305664e+00,-6.147649765014648438e+00,1.898399829864501953e+00
-2.727353334426879883e+00,-6.150940895080566406e+00,1.863934874534606934e+00
-2.436988353729248047e+00,-6.154119491577148438e+00,1.833624482154846191e+00
-2.155472755432128906e+00,-6.157201290130615234e+00,1.807173132896423340e+00
-1.881510019302368164e+00,-6.160200595855712891e+00,1.784331202507019043e+00
-1.613970875740051270e+00,-6.163129329681396484e+00,1.764891028404235840e+00
-1.351764321327209473e+00,-6.165999889373779297e+00,1.748679637908935547e+00
-1.093929052352905273e+00,-6.168822288513183594e+00,1.735557556152343750e+00
-8.395116329193115234e-01,-6.171607494354248047e+00,1.725412726402282715e+00
-5.876575112342834473e-01,-6.174364566802978516e+00,1.718160986900329590e+00
-3.374970555305480957e-01,-6.177103042602539062e+00,1.713742375373840332e+00
-8.822153508663177490e-02,-6.179831981658935547e+00,1.712120652198791504e+00
1.609929651021957397e-01,-6.182559967041015625e+00,1.713282704353332520e+00
4.109474718570709229e-01,-6.185296535491943359e+00,1.717237591743469238e+00
6.624659299850463867e-01,-6.188049793243408203e+00,1.724018096923828125e+00
9.163951277732849121e-01,-6.190829753875732422e+00,1.733679652214050293e+00
1.173604726791381836e+00,-6.193645477294921875e+00,1.746303558349609375e+00
1.435025572776794434e+00,-6.196506977081298828e+00,1.761995911598205566e+00
1.701611161231994629e+00,-6.199425220489501953e+00,1.780891776084899902e+00
1.974429607391357422e+00,-6.202412128448486328e+00,1.803158640861511230e+00
2.254625082015991211e+00,-6.205479145050048828e+00,1.828998684883117676e+00
2.543433904647827148e+00,-6.208641052246093750e+00,1.858652949333190918e+00
2.842259407043457031e+00,-6.211912155151367188e+00,1.892409324645996094e+00
3.152650356292724609e+00,-6.215310096740722656e+00,1.930608987808227539e+00
3.476368904113769531e+00,-6.218853950500488281e+00,1.973654985427856445e+00
3.815421819686889648e+00,-6.222565650939941406e+00,2.022024869918823242e+00
4.172097206115722656e+00,-6.226469993591308594e+00,2.076281785964965820e+00
4.549066066741943359e+00,-6.230597019195556641e+00,2.137098550796508789e+00
4.949463367462158203e+00,-6.234980106353759766e+00,2.205276012420654297e+00
5.376981258392333984e+00,-6.239660263061523438e+00,2.281776428222656250e+00
5.835976123809814453e+00,-6.244684696197509766e+00,2.367758750915527344e+00
6.331765651702880859e+00,-6.250112533569335938e+00,2.464637041091918945e+00
6.870757579803466797e+00,-6.256012916564941406e+00,2.574140548706054688e+00
7.460886478424072266e+00,-6.262473106384277344e+00,2.698413372039794922e+00
8.065804481506347656e+00,-6.233906745910644531e+00,2.823977947235107422e+00
8.310467720031738281e+00,-5.903816699981689453e+00,2.823977947235107422e+00
8.541625022888183594e+00,-5.564125537872314453e+00,2.823977947235107422e+00
8.758902549743652344e+00,-5.215408802032470703e+00,2.823977947235107422e+00
8.096224784851074219e+00,-4.388906478881835938e+00,2.551178932189941406e+00
9.150453567504882812e+00,-4.493119239807128906e+00,2.823977947235107422e+00
9.324072837829589844e+00,-4.120737552642822266e+00,2.823977947235107422e+00
9.482560157775878906e+00,-3.741651535034179688e+00,2.823977947235107422e+00
9.625638961791992188e+00,-3.356491088867187500e+00,2.823977947235107422e+00
9.753075599670410156e+00,-2.965887308120727539e+00,2.823977947235107422e+00
1.020732116699218750e+01,-2.659745216369628906e+00,2.922072649002075195e+00
1.030622196197509766e+01,-2.246252298355102539e+00,2.922072649002075195e+00
1.038836860656738281e+01,-1.829104304313659668e+00,2.922072649002075195e+00
1.045363998413085938e+01,-1.409009575843811035e+00,2.922072649002075195e+00
1.050193023681640625e+01,-9.866079092025756836e-01,2.922072649002075195e+00
1.053315353393554688e+01,-5.626078844070434570e-01,2.922072649002075195e+00
1.054726600646972656e+01,-1.376957446336746216e-01,2.922072649002075195e+00
1.054425239562988281e+01,2.874344587326049805e-01,2.922072649002075195e+00
1.052409648895263672e+01,7.121189832687377930e-01,2.922072649002075195e+00
1.048685264587402344e+01,1.135624885559082031e+00,2.922072649002075195e+00
1.043258190155029297e+01,1.557302832603454590e+00,2.922072649002075195e+00
1.036135101318359375e+01,1.976435065269470215e+00,2.922072649002075195e+00
1.027329349517822266e+01,2.392363786697387695e+00,2.922072649002075195e+00
1.016853713989257812e+01,2.804400920867919922e+00,2.922072649002075195e+00
1.004727363586425781e+01,3.211895942687988281e+00,2.922072649002075195e+00
9.909686088562011719e+00,3.614167928695678711e+00,2.922072649002075195e+00
9.755995750427246094e+00,4.010557651519775391e+00,2.922072649002075195e+00
9.586456298828125000e+00,4.400437355041503906e+00,2.922072649002075195e+00
9.401349067687988281e+00,4.783162593841552734e+00,2.922072649002075195e+00
9.200959205627441406e+00,5.158135890960693359e+00,2.922072649002075195e+00
8.985628128051757812e+00,5.524712085723876953e+00,2.922072649002075195e+00
8.755696296691894531e+00,5.882322311401367188e+00,2.922072649002075195e+00
8.327748298645019531e+00,6.095851421356201172e+00,2.858976125717163086e+00
6.597033023834228516e+00,5.249984264373779297e+00,2.335599422454833984e+00
5.983098983764648438e+00,5.168595314025878906e+00,2.190261125564575195e+00
5.557978630065917969e+00,5.206897258758544922e+00,2.109794855117797852e+00
5.084205150604248047e+00,5.163176059722900391e+00,2.007364511489868164e+00
4.703944206237792969e+00,5.178814411163330078e+00,1.938113689422607422e+00
5.576095581054687500e+00,5.173066139221191406e+00,2.316079616546630859e+00
5.113360404968261719e+00,5.142394065856933594e+00,2.208222866058349609e+00
4.726450920104980469e+00,5.152901172637939453e+00,2.129153728485107422e+00
4.354913234710693359e+00,5.149918556213378906e+00,2.053676605224609375e+00
4.017157554626464844e+00,5.158529281616210938e+00,1.990886569023132324e+00
3.701610088348388672e+00,5.170392036437988281e+00,1.936273336410522461e+00
3.412042617797851562e+00,5.196252822875976562e+00,1.892887830734252930e+00
3.901993751525878906e+00,6.498920917510986328e+00,2.308223962783813477e+00
2.966162681579589844e+00,5.424231052398681641e+00,1.882507324218750000e+00
2.689348220825195312e+00,5.426712036132812500e+00,1.844226956367492676e+00
2.421472072601318359e+00,5.425371646881103516e+00,1.809111833572387695e+00
2.189852952957153320e+00,5.490884304046630859e+00,1.800042986869812012e+00
2.054852247238159180e+00,5.824214458465576172e+00,1.880621433258056641e+00
2.000257015228271484e+00,6.492287158966064453e+00,2.068607568740844727e+00
2.371281862258911133e+00,8.965867042541503906e+00,2.823977947235107422e+00
2.008059978485107422e+00,9.054138183593750000e+00,2.823977947235107422e+00
1.641571879386901855e+00,9.127703666687011719e+00,2.823977947235107422e+00
1.272418975830078125e+00,9.186450958251953125e+00,2.823977947235107422e+00
9.011951684951782227e-01,9.230266571044921875e+00,2.823977947235107422e+00
5.285100340843200684e-01,9.259081840515136719e+00,2.823977947235107422e+00
1.549660116434097290e-01,9.272860527038574219e+00,2.823977947235107422e+00
-2.188269793987274170e-01,9.271567344665527344e+00,2.823977947235107422e+00
-5.922659039497375488e-01,9.255222320556640625e+00,2.823977947235107422e+00
-9.647478461265563965e-01,9.223835945129394531e+00,2.823977947235107422e+00
-1.335654258728027344e+00,9.177462577819824219e+00,2.823977947235107422e+00
-1.704396724700927734e+00,9.116188049316406250e+00,2.823977947235107422e+00
-2.070371627807617188e+00,9.040097236633300781e+00,2.823977947235107422e+00
-2.432981967926025391e+00,8.949333190917968750e+00,2.823977947235107422e+00
-2.791631460189819336e+00,8.844015121459960938e+00,2.823977947235107422e+00
-3.145753622055053711e+00,8.724349975585937500e+00,2.823977947235107422e+00
-3.494766235351562500e+00,8.590482711791992188e+00,2.823977947235107422e+00
-3.838102579116821289e+00,8.442681312561035156e+00,2.823977947235107422e+00
-4.175195217132568359e+00,8.281154632568359375e+00,2.823977947235107422e+00
-4.505514621734619141e+00,8.106186866760253906e+00,2.823977947235107422e+00
-4.828516006469726562e+00,7.918045520782470703e+00,2.823977947235107422e+00
-5.143662452697753906e+00,7.717045307159423828e+00,2.823977947235107422e+00
-5.450461864471435547e+00,7.503502845764160156e+00,2.823977947235107422e+00
-5.748406887054443359e+00,7.277762413024902344e+00,2.823977947235107422e+00
-6.037012577056884766e+00,7.040199756622314453e+00,2.823977947235107422e+00
-6.315809249877929688e+00,6.791206836700439453e+00,2.823977947235107422e+00
-6.584350109100341797e+00,6.531191349029541016e+00,2.823977947235107422e+00
-6.843721389770507812e+00,6.261966228485107422e+00,2.824610471725463867e+00
-7.335151672363281250e+00,6.187461376190185547e+00,2.922072649002075195e+00
-7.578538417816162109e+00,5.886854171752929688e+00,2.922072649002075195e+00
-7.809600830078125000e+00,5.576681613922119141e+00,2.922072649002075195e+00
-8.027982711791992188e+00,5.257458686828613281e+00,2.922072649002075195e+00
-8.233319282531738281e+00,4.929669857025146484e+00,2.922072649002075195e+00
-8.425285339355468750e+00,4.593890666961669922e+00,2.922072649002075195e+00
-8.603560447692871094e+00,4.250637531280517578e+00,2.922072649002075195e+00
-8.767865180969238281e+00,3.900486469268798828e+00,2.922072649002075195e+00
-8.917923927307128906e+00,3.543999195098876953e+00,2.922072649002075195e+00
-9.053489685058593750e+00,3.181752920150756836e+00,2.922072649002075195e+00
-9.174355506896972656e+00,2.814348220825195312e+00,2.922072649002075195e+00
-9.280308723449707031e+00,2.442362546920776367e+00,2.922072649002075195e+00
-9.371191024780273438e+00,2.066404819488525391e+00,2.922072649002075195e+00
-9.446849822998046875e+00,1.687098503112792969e+00,2.922072649002075195e+00
-9.510091781616210938e+00,1.305443644523620605e+00,2.922974109649658203e+00
-9.554804801940917969e+00,9.211444258689880371e-01,2.922924995422363281e+00
-9.584001541137695312e+00,5.353553891181945801e-01,2.922875881195068359e+00
-9.597633361816406250e+00,1.487017124891281128e-01,2.922827959060668945e+00
-9.595680236816406250e+00,-2.381684035062789917e-01,2.922780752182006836e+00
-9.578136444091796875e+00,-6.246446371078491211e-01,2.922734975814819336e+00
-9.545038223266601562e+00,-1.010093212127685547e+00,2.922689914703369141e+00
-9.496440887451171875e+00,-1.393895506858825684e+00,2.922646522521972656e+00
-9.430709838867187500e+00,-1.775085210800170898e+00,2.922072649002075195e+00
-9.351520538330078125e+00,-2.153667926788330078e+00,2.922072649002075195e+00
-9.065576553344726562e+00,-2.476428031921386719e+00,2.861602783203125000e+00
-8.840623855590820312e+00,-2.802396059036254883e+00,2.823977947235107422e+00
-8.720520973205566406e+00,-3.156378030776977539e+00,2.823977947235107422e+00
-8.586247444152832031e+00,-3.505227565765380859e+00,2.823977947235107422e+00
-8.438017845153808594e+00,-3.848377704620361328e+00,2.823977947235107422e+00
-8.276084899902343750e+00,-4.185284137725830078e+00,2.823977947235107422e+00
-8.100708961486816406e+00,-4.515386581420898438e+00,2.823977947235107422e+00
-7.912168979644775391e+00,-4.838148593902587891e+00,2.823977947235107422e+00
-7.710784912109375000e+00,-5.153062343597412109e+00,2.823977947235107422e+00
-7.496865749359130859e+00,-5.459599018096923828e+00,2.823977947235107422e+00
-7.270770549774169922e+00,-5.757257938385009766e+00,2.823977947235107422e+00
-7.032869815826416016e+00,-6.045577049255371094e+00,2.823977947235107422e+00
-6.552891731262207031e+00,-6.109062194824218750e+00,2.727968931198120117e+00
-6.050449848175048828e+00,-6.114562511444091797e+00,2.619333028793334961e+00
-5.585771560668945312e+00,-6.119649410247802734e+00,2.522958755493164062e+00
-5.153378486633300781e+00,-6.124382972717285156e+00,2.437243938446044922e+00
-4.748785495758056641e+00,-6.128812313079833984e+00,2.360871315002441406e+00
-4.368170261383056641e+00,-6.132978916168212891e+00,2.292750835418701172e+00
-4.008336067199707031e+00,-6.136918067932128906e+00,2.231976270675659180e+00
-3.666544198989868164e+00,-6.140659332275390625e+00,2.177786111831665039e+00
-3.340445041656494141e+00,-6.144229412078857422e+00,2.129542589187622070e+00
-3.027979135513305664e+00,-6.147649765014648438e+00,2.086707115173339844e+00
-2.727353334426879883e+00,-6.150940895080566406e+00,2.048823356628417969e+00
-2.436988353729248047e+00,-6.154119491577148438e+00,2.015506267547607422e+00
-2.155472755432128906e+00,-6.157201290130615234e+00,1.986431241035461426e+00
-1.881510019302368164e+00,-6.160200595855712891e+00,1.961323261260986328e+00
-1.613970875740051270e+00,-6.163129329681396484e+00,1.939954996109008789e+00
-1.351771950721740723e+00,-6.165999412536621094e+00,1.922135710716247559e+00
-1.093929052352905273e+00,-6.168822288513183594e+00,1.907711505889892578e+00
-8.395116329193115234e-01,-6.171607494354248047e+00,1.896560907363891602e+00
-5.876575112342834473e-01,-6.174364566802978516e+00,1.888589382171630859e+00
-3.374970555305480957e-01,-6.177103042602539062e+00,1.883732557296752930e+00
-8.822153508663177490e-02,-6.179831981658935547e+00,1.881949901580810547e+00
1.609929651021957397e-01,-6.182559967041015625e+00,1.883227109909057617e+00
4.109474718570709229e-01,-6.185296535491943359e+00,1.887574553489685059e+00
6.624659299850463867e-01,-6.188049793243408203e+00,1.895027279853820801e+00
9.163951277732849121e-01,-6.190829753875732422e+00,1.905647397041320801e+00
1.173604726791381836e+00,-6.193645477294921875e+00,1.919523477554321289e+00
1.435017943382263184e+00,-6.196506977081298828e+00,1.936772584915161133e+00
1.701611161231994629e+00,-6.199425220489501953e+00,1.957542896270751953e+00
1.974429607391357422e+00,-6.202412128448486328e+00,1.982018470764160156e+00
2.254625082015991211e+00,-6.205479145050048828e+00,2.010421514511108398e+00
2.543433904647827148e+00,-6.208641052246093750e+00,2.043017387390136719e+00
2.842259407043457031e+00,-6.211912155151367188e+00,2.080121994018554688e+00
3.152650356292724609e+00,-6.215310096740722656e+00,2.122111320495605469e+00
3.476368904113769531e+00,-6.218853950500488281e+00,2.169427394866943359e+00
3.815421819686889648e+00,-6.222565650939941406e+00,2.222594499588012695e+00
4.172097206115722656e+00,-6.226469993591308594e+00,2.282233476638793945e+00
4.549081325531005859e+00,-6.230597019195556641e+00,2.349082946777343750e+00
4.949463367462158203e+00,-6.234980106353759766e+00,2.424023151397705078e+00
5.376981258392333984e+00,-6.239660263061523438e+00,2.508111715316772461e+00
5.835976123809814453e+00,-6.244684696197509766e+00,2.602622985839843750e+00
6.331765651702880859e+00,-6.250112533569335938e+00,2.709110736846923828e+00
6.870757579803466797e+00,-6.256012916564941406e+00,2.829475402832031250e+00
7.103439331054687500e+00,-5.962438106536865234e+00,2.823977947235107422e+00
7.337932586669921875e+00,-5.671347618103027344e+00,2.823977947235107422e+00
7.560524940490722656e+00,-5.371054649353027344e+00,2.823977947235107422e+00
7.770814418792724609e+00,-5.062013149261474609e+00,2.823977947235107422e+00
7.968489646911621094e+00,-4.744768142700195312e+00,2.823977947235107422e+00
8.096247673034667969e+00,-4.388914585113525391e+00,2.804243326187133789e+00
8.324695587158203125e+00,-4.087655544281005859e+00,2.823977947235107422e+00
8.482665061950683594e+00,-3.748872041702270508e+00,2.823977947235107422e+00
8.626836776733398438e+00,-3.404001712799072266e+00,2.823977947235107422e+00
8.757000923156738281e+00,-3.053599119186401367e+00,2.823977947235107422e+00
8.872942924499511719e+00,-2.698233604431152344e+00,2.823977947235107422e+00
9.286202430725097656e+00,-2.419728517532348633e+00,2.922072649002075195e+00
9.376179695129394531e+00,-2.043546676635742188e+00,2.922072649002075195e+00
9.450901985168457031e+00,-1.664047360420227051e+00,2.922072649002075195e+00
9.510288238525390625e+00,-1.281854271888732910e+00,2.922072649002075195e+00
9.554223060607910156e+00,-8.975771069526672363e-01,2.922072649002075195e+00
9.582625389099121094e+00,-5.118404030799865723e-01,2.922072649002075195e+00
9.595471382141113281e+00,-1.252696663141250610e-01,2.922072649002075195e+00
9.592724800109863281e+00,2.615023553371429443e-01,2.922072649002075195e+00
9.574392318725585938e+00,6.478497982025146484e-01,2.922072649002075195e+00
9.540513992309570312e+00,1.033146619796752930e+00,2.922072649002075195e+00
9.491137504577636719e+00,1.416766881942749023e+00,2.922072649002075195e+00
9.426329612731933594e+00,1.798076152801513672e+00,2.922072649002075195e+00
9.346215248107910156e+00,2.176478147506713867e+00,2.922072649002075195e+00
9.250917434692382812e+00,2.551330804824829102e+00,2.922072649002075195e+00
9.140588760375976562e+00,2.922044754028320312e+00,2.922072649002075195e+00
9.015414237976074219e+00,3.288015127182006836e+00,2.922072649002075195e+00
8.875593185424804688e+00,3.648637056350708008e+00,2.922072649002075195e+00
8.721362113952636719e+00,4.003343582153320312e+00,2.922072649002075195e+00
8.552961349487304688e+00,4.351536273956298828e+00,2.922072649002075195e+00
8.370656013488769531e+00,4.692663669586181641e+00,2.922072649002075195e+00
8.174756050109863281e+00,5.026157379150390625e+00,2.922072649002075195e+00
7.965567111968994141e+00,5.351511001586914062e+00,2.922072649002075195e+00
7.743456363677978516e+00,5.668139457702636719e+00,2.922072649002075195e+00
7.508748054504394531e+00,5.975582599639892578e+00,2.922072649002075195e+00
5.973578929901123047e+00,5.160367965698242188e+00,2.403688907623291016e+00
5.450809478759765625e+00,5.106502056121826172e+00,2.274354934692382812e+00
5.076744079589843750e+00,5.155612945556640625e+00,2.203243494033813477e+00
4.680057525634765625e+00,5.152539253234863281e+00,2.119547367095947266e+00
5.584889888763427734e+00,5.181210517883300781e+00,2.532320022583007812e+00
5.114401340484619141e+00,5.143435478210449219e+00,2.411082029342651367e+00
4.725910186767578125e+00,5.152311801910400391e+00,2.324009656906127930e+00
4.359040737152099609e+00,5.154786586761474609e+00,2.244008541107177734e+00
4.016252040863037109e+00,5.157364368438720703e+00,2.172852039337158203e+00
3.697255373001098633e+00,5.164305210113525391e+00,2.111234664916992188e+00
3.397207021713256836e+00,5.173647880554199219e+00,2.057370901107788086e+00
3.300374984741210938e+00,5.496901512145996094e+00,2.131257534027099609e+00
2.872033357620239258e+00,5.252109527587890625e+00,1.989818334579467773e+00
2.624129533767700195e+00,5.295109272003173828e+00,1.964418649673461914e+00
2.381769180297851562e+00,5.336399555206298828e+00,1.942520380020141602e+00
2.170483112335205078e+00,5.442310810089111328e+00,1.947625041007995605e+00
2.031426668167114258e+00,5.757847309112548828e+00,2.029576063156127930e+00
1.945101857185363770e+00,6.313253879547119141e+00,2.195916175842285156e+00
2.172211647033691406e+00,8.213164329528808594e+00,2.823977947235107422e+00
1.839481592178344727e+00,8.294035911560058594e+00,2.823977947235107422e+00
1.503765702247619629e+00,8.361420631408691406e+00,2.823977947235107422e+00
1.165604710578918457e+00,8.415235519409179688e+00,2.823977947235107422e+00
8.255466222763061523e-01,8.455367088317871094e+00,2.823977947235107422e+00
4.841403365135192871e-01,8.481765747070312500e+00,2.823977947235107422e+00
1.419576555490493774e-01,8.494392395019531250e+00,2.823977947235107422e+00
-2.004601359367370605e-01,8.493212699890136719e+00,2.823977947235107422e+00
-5.425482392311096191e-01,8.478233337402343750e+00,2.823977947235107422e+00
-8.837571740150451660e-01,8.449481010437011719e+00,2.823977947235107422e+00
-1.223529219627380371e+00,8.407009124755859375e+00,2.823977947235107422e+00
-1.561314463615417480e+00,8.350872993469238281e+00,2.823977947235107422e+00
-1.896562576293945312e+00,8.281174659729003906e+00,2.823977947235107422e+00
-2.228730440139770508e+00,8.198029518127441406e+00,2.823977947235107422e+00
-2.557275056838989258e+00,8.101552963256835938e+00,2.823977947235107422e+00
-2.881668090820312500e+00,7.991922855377197266e+00,2.823977947235107422e+00
-3.201381206512451172e+00,7.869316577911376953e+00,2.823977947235107422e+00
-3.515893220901489258e+00,7.733911514282226562e+00,2.823977947235107422e+00
-3.824690818786621094e+00,7.585961341857910156e+00,2.823977947235107422e+00
-4.127275466918945312e+00,7.425659656524658203e+00,2.823977947235107422e+00
-4.423155307769775391e+00,7.253320217132568359e+00,2.823977947235107422e+00
-4.711855411529541016e+00,7.069182872772216797e+00,2.823977947235107422e+00
-4.992890357971191406e+00,6.873578071594238281e+00,2.823977947235107422e+00
-5.265823364257812500e+00,6.666776180267333984e+00,2.823977947235107422e+00
-5.530206680297851562e+00,6.449182510375976562e+00,2.823977947235107422e+00
-5.813112735748291016e+00,6.250668525695800781e+00,2.837409257888793945e+00
-6.241101741790771484e+00,6.190713882446289062e+00,2.922072649002075195e+00
-6.485501766204833984e+00,5.934187412261962891e+00,2.922072649002075195e+00
-6.719363689422607422e+00,5.668024539947509766e+00,2.922072649002075195e+00
-6.942308425903320312e+00,5.392646789550781250e+00,2.922072649002075195e+00
-7.153981208801269531e+00,5.108509063720703125e+00,2.922072649002075195e+00
-7.354024887084960938e+00,4.816079616546630859e+00,2.922072649002075195e+00
-7.542129993438720703e+00,4.515813827514648438e+00,2.922072649002075195e+00
-7.717977523803710938e+00,4.208226203918457031e+00,2.922072649002075195e+00
-7.881287574768066406e+00,3.893787145614624023e+00,2.922072649002075195e+00
-8.031795501708984375e+00,3.573042869567871094e+00,2.922072649002075195e+00
-8.169260025024414062e+00,3.246479511260986328e+00,2.922072649002075195e+00
-8.293443679809570312e+00,2.914643287658691406e+00,2.922072649002075195e+00
-8.404159545898437500e+00,2.578081846237182617e+00,2.922072649002075195e+00
-8.501217842102050781e+00,2.237326860427856445e+00,2.922072649002075195e+00
-8.584475517272949219e+00,1.892934203147888184e+00,2.922072649002075195e+00
-8.653781890869140625e+00,1.545466542243957520e+00,2.922072649002075195e+00
-8.709031105041503906e+00,1.195487260818481445e+00,2.922072649002075195e+00
-8.750132560729980469e+00,8.435677289962768555e-01,2.922072649002075195e+00
-8.777019500732421875e+00,4.902794957160949707e-01,2.922072649002075195e+00
-8.789647102355957031e+00,1.361866146326065063e-01,2.922072649002075195e+00
-8.787994384765625000e+00,-2.181236445903778076e-01,2.922072649002075195e+00
-8.772061347961425781e+00,-5.720790028572082520e-01,2.922072649002075195e+00
-8.741888999938964844e+00,-9.251068234443664551e-01,2.922072649002075195e+00
-8.697501182556152344e+00,-1.276619434356689453e+00,2.922072649002075195e+00
-8.638998985290527344e+00,-1.626066088676452637e+00,2.922072649002075195e+00
-8.566458702087402344e+00,-1.972866296768188477e+00,2.922072649002075195e+00
-8.479997634887695312e+00,-2.316469669342041016e+00,2.922072649002075195e+00
-8.098448753356933594e+00,-2.567136526107788086e+00,2.823977947235107422e+00
-7.988428115844726562e+00,-2.891396284103393555e+00,2.823977947235107422e+00
-7.865423202514648438e+00,-3.210960865020751953e+00,2.823977947235107422e+00
-7.729642868041992188e+00,-3.525301933288574219e+00,2.823977947235107422e+00
-7.581301689147949219e+00,-3.833920478820800781e+00,2.823977947235107422e+00
-7.420653820037841797e+00,-4.136310577392578125e+00,2.823977947235107422e+00
-7.247938632965087891e+00,-4.431988716125488281e+00,2.823977947235107422e+00
-7.063455581665039062e+00,-4.720455646514892578e+00,2.823977947235107422e+00
-6.867497444152832031e+00,-5.001258373260498047e+00,2.823977947235107422e+00
-6.660386562347412109e+00,-5.273927688598632812e+00,2.823977947235107422e+00
-6.442447185516357422e+00,-5.538040161132812500e+00,2.823977947235107422e+00
-6.214047908782958984e+00,-5.793157577514648438e+00,2.823977947235107422e+00
-5.975558280944824219e+00,-6.038855075836181641e+00,2.823977947235107422e+00
-5.585771560668945312e+00,-6.119649410247802734e+00,2.754174947738647461e+00
-5.153378486633300781e+00,-6.124382972717285156e+00,2.660603046417236328e+00
-4.748785495758056641e+00,-6.128812313079833984e+00,2.577232122421264648e+00
-4.368170261383056641e+00,-6.132978916168212891e+00,2.502869606018066406e+00
-4.008336067199707031e+00,-6.136918067932128906e+00,2.436524868011474609e+00
-3.666544198989868164e+00,-6.140659332275390625e+00,2.377368450164794922e+00
-3.340445041656494141e+00,-6.144229412078857422e+00,2.324703931808471680e+00
-3.027979135513305664e+00,-6.147649765014648438e+00,2.277942419052124023e+00
-2.727353334426879883e+00,-6.150940895080566406e+00,2.236586093902587891e+00
-2.436988353729248047e+00,-6.154119491577148438e+00,2.200216293334960938e+00
-2.155465126037597656e+00,-6.157201290130615234e+00,2.168476343154907227e+00
-1.881510019302368164e+00,-6.160200595855712891e+00,2.141067743301391602e+00
-1.613970875740051270e+00,-6.163129329681396484e+00,2.117741107940673828e+00
-1.351771950721740723e+00,-6.165999412536621094e+00,2.098288297653198242e+00
-1.093921422958374023e+00,-6.168822288513183594e+00,2.082542419433593750e+00
-8.395116329193115234e-01,-6.171607494354248047e+00,2.070370197296142578e+00
-5.876575112342834473e-01,-6.174364566802978516e+00,2.061668634414672852e+00
-3.374970555305480957e-01,-6.177103042602539062e+00,2.056366443634033203e+00
-8.822153508663177490e-02,-6.179831981658935547e+00,2.054420471191406250e+00
1.609929651021957397e-01,-6.182559967041015625e+00,2.055814027786254883e+00
4.109474718570709229e-01,-6.185296535491943359e+00,2.060560464859008789e+00
6.624659299850463867e-01,-6.188049793243408203e+00,2.068696498870849609e+00
9.163951277732849121e-01,-6.190829753875732422e+00,2.080289602279663086e+00
1.173604726791381836e+00,-6.193645477294921875e+00,2.095437049865722656e+00
1.435017943382263184e+00,-6.196506977081298828e+00,2.114266872406005859e+00
1.701611161231994629e+00,-6.199425220489501953e+00,2.136940479278564453e+00
1.974429607391357422e+00,-6.202412128448486328e+00,2.163659811019897461e+00
2.254625082015991211e+00,-6.205479145050048828e+00,2.194665908813476562e+00
2.543433904647827148e+00,-6.208641052246093750e+00,2.230247974395751953e+00
2.842259407043457031e+00,-6.211912155151367188e+00,2.270753622055053711e+00
3.152650356292724609e+00,-6.215310096740722656e+00,2.316590785980224609e+00
3.476368904113769531e+00,-6.218853950500488281e+00,2.368242740631103516e+00
3.815421819686889648e+00,-6.222565650939941406e+00,2.426283597946166992e+00
4.172097206115722656e+00,-6.226469993591308594e+00,2.491387367248535156e+00
4.549081325531005859e+00,-6.230597019195556641e+00,2.564363479614257812e+00
4.949463367462158203e+00,-6.234980106353759766e+00,2.646171569824218750e+00
5.376965999603271484e+00,-6.239660263061523438e+00,2.737964868545532227e+00
5.800712108612060547e+00,-6.206973552703857422e+00,2.823977947235107422e+00
6.046123504638671875e+00,-5.968167781829833984e+00,2.823977947235107422e+00
6.281706809997558594e+00,-5.719678878784179688e+00,2.823977947235107422e+00
6.507099151611328125e+00,-5.461884498596191406e+00,2.823977947235107422e+00
6.721906661987304688e+00,-5.195238113403320312e+00,2.823977947235107422e+00
6.925804615020751953e+00,-4.920140266418457031e+00,2.823977947235107422e+00
7.118444442749023438e+00,-4.637053012847900391e+00,2.823977947235107422e+00
7.299523830413818359e+00,-4.346430301666259766e+00,2.823977947235107422e+00
7.468754291534423828e+00,-4.048758029937744141e+00,2.823977947235107422e+00
7.625834465026855469e+00,-3.744489908218383789e+00,2.823977947235107422e+00
7.770529270172119141e+00,-3.434150218963623047e+00,2.823977947235107422e+00
7.902604103088378906e+00,-3.118232488632202148e+00,2.823977947235107422e+00
8.021846771240234375e+00,-2.797245264053344727e+00,2.823977947235107422e+00
8.410388946533203125e+00,-2.557579755783081055e+00,2.922072649002075195e+00
8.506626129150390625e+00,-2.216579437255859375e+00,2.922072649002075195e+00
8.589031219482421875e+00,-1.871978998184204102e+00,2.922072649002075195e+00
8.657492637634277344e+00,-1.524349570274353027e+00,2.922072649002075195e+00
8.711895942687988281e+00,-1.174238920211791992e+00,2.922072649002075195e+00
8.752137184143066406e+00,-8.222184777259826660e-01,2.922072649002075195e+00
8.778154373168945312e+00,-4.688596725463867188e-01,2.922072649002075195e+00
8.789919853210449219e+00,-1.147497221827507019e-01,2.922072649002075195e+00
8.787405014038085938e+00,2.395470887422561646e-01,2.922072649002075195e+00
8.770609855651855469e+00,5.934661030769348145e-01,2.922072649002075195e+00
8.739575386047363281e+00,9.464118480682373047e-01,2.922072649002075195e+00
8.694331169128417969e+00,1.297826886177062988e+00,2.922072649002075195e+00
8.634980201721191406e+00,1.647130370140075684e+00,2.922072649002075195e+00
8.561591148376464844e+00,1.993756771087646484e+00,2.922072649002075195e+00
8.474294662475585938e+00,2.337140083312988281e+00,2.922072649002075195e+00
8.373224258422851562e+00,2.676744937896728516e+00,2.922072649002075195e+00
8.258563041687011719e+00,3.011981487274169922e+00,2.922072649002075195e+00
8.130488395690917969e+00,3.342337131500244141e+00,2.922072649002075195e+00
7.989192485809326172e+00,3.667252063751220703e+00,2.922072649002075195e+00
7.834921836853027344e+00,3.986220836639404297e+00,2.922072649002075195e+00
7.667922019958496094e+00,4.298706054687500000e+00,2.922072649002075195e+00
7.488470554351806641e+00,4.604216575622558594e+00,2.922072649002075195e+00
7.296851634979248047e+00,4.902230262756347656e+00,2.922072649002075195e+00
7.093379974365234375e+00,5.192301750183105469e+00,2.922072649002075195e+00
6.878386497497558594e+00,5.473923206329345703e+00,2.922072649002075195e+00
5.986033916473388672e+00,5.171127319335937500e+00,2.629442214965820312e+00
5.501117706298828125e+00,5.153622627258300781e+00,2.505697727203369141e+00
5.073063850402832031e+00,5.151868820190429688e+00,2.403411388397216797e+00
4.680126667022705078e+00,5.152599334716796875e+00,2.313821792602539062e+00
5.619499683380126953e+00,5.213319301605224609e+00,2.765554428100585938e+00
5.204448223114013672e+00,5.233992576599121094e+00,2.663010358810424805e+00
4.766257762908935547e+00,5.196291446685791016e+00,2.543962717056274414e+00
4.377569675445556641e+00,5.176711082458496094e+00,2.445952177047729492e+00
4.026823043823242188e+00,5.170951843261718750e+00,2.364572525024414062e+00
3.703647851943969727e+00,5.173223495483398438e+00,2.295448303222656250e+00
3.401645183563232422e+00,5.180420398712158203e+00,2.235947132110595703e+00
3.300374984741210938e+00,5.496901512145996094e+00,2.313219070434570312e+00
2.865290880203247070e+00,5.239777565002441406e+00,2.154631614685058594e+00
2.605934858322143555e+00,5.258395195007324219e+00,2.117353916168212891e+00
2.365437507629394531e+00,5.299818038940429688e+00,2.093912601470947266e+00
2.156903028488159180e+00,5.408262729644775391e+00,2.100683450698852539e+00
2.010867118835449219e+00,5.699551582336425781e+00,2.180553436279296875e+00
1.892043232917785645e+00,6.141048908233642578e+00,2.318385839462280273e+00
2.001341581344604492e+00,7.567107677459716797e+00,2.823977947235107422e+00
1.694780945777893066e+00,7.641619682312011719e+00,2.823977947235107422e+00
1.385475039482116699e+00,7.703709602355957031e+00,2.823977947235107422e+00
1.073910951614379883e+00,7.753281116485595703e+00,2.823977947235107422e+00
7.605990767478942871e-01,7.790251731872558594e+00,2.823977947235107422e+00
4.460577964782714844e-01,7.814585685729980469e+00,2.823977947235107422e+00
1.307898014783859253e-01,7.826200962066650391e+00,2.823977947235107422e+00
-1.846935003995895386e-01,7.825122356414794922e+00,2.823977947235107422e+00
-4.998736083507537842e-01,7.811314105987548828e+00,2.823977947235107422e+00
-8.142385482788085938e-01,7.784846305847167969e+00,2.823977947235107422e+00
-1.127285003662109375e+00,7.745698451995849609e+00,2.823977947235107422e+00
-1.438500523567199707e+00,7.693987369537353516e+00,2.823977947235107422e+00
-1.747380852699279785e+00,7.629768848419189453e+00,2.823977947235107422e+00
-2.053413629531860352e+00,7.553157806396484375e+00,2.823977947235107422e+00
-2.356124401092529297e+00,7.464272499084472656e+00,2.823977947235107422e+00
-2.654992818832397461e+00,7.363259792327880859e+00,2.823977947235107422e+00
-2.949558973312377930e+00,7.250296592712402344e+00,2.823977947235107422e+00
-3.239325284957885742e+00,7.125561714172363281e+00,2.823977947235107422e+00
-3.523839473724365234e+00,6.989233493804931641e+00,2.823977947235107422e+00
-3.802618265151977539e+00,6.841550350189208984e+00,2.823977947235107422e+00
-4.075231552124023438e+00,6.682765960693359375e+00,2.823977947235107422e+00
-4.341211318969726562e+00,6.513121128082275391e+00,2.823977947235107422e+00
-4.600142002105712891e+00,6.332885265350341797e+00,2.823977947235107422e+00
-4.929506301879882812e+00,6.240995407104492188e+00,2.869322299957275391e+00
-5.272178649902343750e+00,6.148259639739990234e+00,2.922072649002075195e+00
-5.515655040740966797e+00,5.930819034576416016e+00,2.922072649002075195e+00
-5.750172138214111328e+00,5.703742980957031250e+00,2.922072649002075195e+00
-5.975337505340576172e+00,5.467393398284912109e+00,2.922072649002075195e+00
-6.190803527832031250e+00,5.222163677215576172e+00,2.922072649002075195e+00
-6.396222114562988281e+00,4.968446254730224609e+00,2.922072649002075195e+00
-6.591238021850585938e+00,4.706664562225341797e+00,2.922072649002075195e+00
-6.775549411773681641e+00,4.437242507934570312e+00,2.922072649002075195e+00
-6.948852539062500000e+00,4.160604476928710938e+00,2.922072649002075195e+00
-7.110869407653808594e+00,3.877204418182373047e+00,2.922072649002075195e+00
-7.261335849761962891e+00,3.587498188018798828e+00,2.922072649002075195e+00
-7.400000572204589844e+00,3.291985988616943359e+00,2.922072649002075195e+00
-7.526653289794921875e+00,2.991108417510986328e+00,2.922072649002075195e+00
-7.641067981719970703e+00,2.685373783111572266e+00,2.922072649002075195e+00
-7.743078708648681641e+00,2.375283956527709961e+00,2.922072649002075195e+00
-7.832503795623779297e+00,2.061333417892456055e+00,2.922072649002075195e+00
-7.909208774566650391e+00,1.744023442268371582e+00,2.922072649002075195e+00
-7.973065376281738281e+00,1.423894882202148438e+00,2.922072649002075195e+00
-8.023968696594238281e+00,1.101442456245422363e+00,2.922072649002075195e+00
-8.061829566955566406e+00,7.772142291069030762e-01,2.922072649002075195e+00
-8.086604118347167969e+00,4.517137110233306885e-01,2.922072649002075195e+00
-8.098239898681640625e+00,1.254741847515106201e-01,2.922072649002075195e+00
-8.096716880798339844e+00,-2.009628117084503174e-01,2.922072649002075195e+00
-8.082044601440429688e+00,-5.270707011222839355e-01,2.922072649002075195e+00
-8.054239273071289062e+00,-8.523305058479309082e-01,2.922072649002075195e+00
-8.013355255126953125e+00,-1.176199793815612793e+00,2.922072649002075195e+00
-7.959442138671875000e+00,-1.498159289360046387e+00,2.922072649002075195e+00
-7.892608642578125000e+00,-1.817689061164855957e+00,2.922072649002075195e+00
-7.812946319580078125e+00,-2.134253740310668945e+00,2.922072649002075195e+00
-7.720596313476562500e+00,-2.447364091873168945e+00,2.922072649002075195e+00
-7.360046386718750000e+00,-2.663954734802246094e+00,2.823977947235107422e+00
-7.246716022491455078e+00,-2.958380222320556641e+00,2.823977947235107422e+00
-7.121621131896972656e+00,-3.247997760772705078e+00,2.823977947235107422e+00
-6.984954357147216797e+00,-3.532340049743652344e+00,2.823977947235107422e+00
-6.836933612823486328e+00,-3.810947179794311523e+00,2.823977947235107422e+00
-6.677804470062255859e+00,-4.083358287811279297e+00,2.823977947235107422e+00
-6.507836341857910156e+00,-4.349135398864746094e+00,2.823977947235107422e+00
-6.327292442321777344e+00,-4.607848644256591797e+00,2.823977947235107422e+00
-6.136474132537841797e+00,-4.859082698822021484e+00,2.823977947235107422e+00
-5.935679912567138672e+00,-5.102406978607177734e+00,2.823977947235107422e+00
-5.725242614746093750e+00,-5.337459564208984375e+00,2.823977947235107422e+00
-5.505509376525878906e+00,-5.563838958740234375e+00,2.823977947235107422e+00
-5.276825904846191406e+00,-5.781168460845947266e+00,2.823977947235107422e+00
-5.039578437805175781e+00,-5.989115715026855469e+00,2.823977947235107422e+00
-4.748785495758056641e+00,-6.128812313079833984e+00,2.797269582748413086e+00
-4.368170261383056641e+00,-6.132978916168212891e+00,2.716557741165161133e+00
-4.008336067199707031e+00,-6.136918067932128906e+00,2.644548177719116211e+00
-3.666544198989868164e+00,-6.140659332275390625e+00,2.580342292785644531e+00
-3.340437650680541992e+00,-6.144229412078857422e+00,2.523180246353149414e+00
-3.027979135513305664e+00,-6.147649765014648438e+00,2.472427845001220703e+00
-2.727353334426879883e+00,-6.150940895080566406e+00,2.427541017532348633e+00
-2.436988353729248047e+00,-6.154119491577148438e+00,2.388065576553344727e+00
-2.155465126037597656e+00,-6.157201290130615234e+00,2.353615283966064453e+00
-1.881510019302368164e+00,-6.160200595855712891e+00,2.323866844177246094e+00
-1.613970875740051270e+00,-6.163129329681396484e+00,2.298547744750976562e+00
-1.351764321327209473e+00,-6.165999889373779297e+00,2.277435064315795898e+00
-1.093929052352905273e+00,-6.168822288513183594e+00,2.260345458984375000e+00
-8.395116329193115234e-01,-6.171607494354248047e+00,2.247132778167724609e+00
-5.876575112342834473e-01,-6.174364566802978516e+00,2.237688541412353516e+00
-3.374970555305480957e-01,-6.177103042602539062e+00,2.231933593750000000e+00
-8.822153508663177490e-02,-6.179831981658935547e+00,2.229821205139160156e+00
1.609929651021957397e-01,-6.182559967041015625e+00,2.231335163116455078e+00
4.109474718570709229e-01,-6.185296535491943359e+00,2.236485004425048828e+00
6.624659299850463867e-01,-6.188049793243408203e+00,2.245316028594970703e+00
9.163951277732849121e-01,-6.190829753875732422e+00,2.257899284362792969e+00
1.173604726791381836e+00,-6.193645477294921875e+00,2.274340391159057617e+00
1.435025572776794434e+00,-6.196506977081298828e+00,2.294778823852539062e+00
1.701611161231994629e+00,-6.199425220489501953e+00,2.319387197494506836e+00
1.974429607391357422e+00,-6.202412128448486328e+00,2.348387241363525391e+00
2.254625082015991211e+00,-6.205479145050048828e+00,2.382040262222290039e+00
2.543433904647827148e+00,-6.208641052246093750e+00,2.420661687850952148e+00
2.842259407043457031e+00,-6.211912155151367188e+00,2.464624881744384766e+00
3.152650356292724609e+00,-6.215310096740722656e+00,2.514374971389770508e+00
3.476368904113769531e+00,-6.218853950500488281e+00,2.570437431335449219e+00
3.815421819686889648e+00,-6.222565650939941406e+00,2.633432388305664062e+00
4.172097206115722656e+00,-6.226469993591308594e+00,2.704096078872680664e+00
4.549066066741943359e+00,-6.230597019195556641e+00,2.783302068710327148e+00
4.866540908813476562e+00,-6.130519866943359375e+00,2.823977947235107422e+00
5.109624385833740234e+00,-5.929441452026367188e+00,2.823977947235107422e+00
5.344420909881591797e+00,-5.718719482421875000e+00,2.823977947235107422e+00
5.570521354675292969e+00,-5.498707771301269531e+00,2.823977947235107422e+00
5.787579059600830078e+00,-5.269762039184570312e+00,2.823977947235107422e+00
5.995231151580810547e+00,-5.032251834869384766e+00,2.823977947235107422e+00
6.193145275115966797e+00,-4.786585807800292969e+00,2.823977947235107422e+00
6.381004810333251953e+00,-4.533125877380371094e+00,2.823977947235107422e+00
6.558499813079833984e+00,-4.272304534912109375e+00,2.823977947235107422e+00
6.725336074829101562e+00,-4.004530429840087891e+00,2.823977947235107422e+00
6.881247997283935547e+00,-3.730273246765136719e+00,2.823977947235107422e+00
7.025972366333007812e+00,-3.449949502944946289e+00,2.823977947235107422e+00
7.159290790557861328e+00,-3.164015531539916992e+00,2.823977947235107422e+00
7.280976295471191406e+00,-2.872948646545410156e+00,2.823977947235107422e+00
7.625926971435546875e+00,-2.659190416336059570e+00,2.913805246353149414e+00
7.748816967010498047e+00,-2.356394290924072266e+00,2.922072649002075195e+00
7.837473869323730469e+00,-2.042221546173095703e+00,2.922072649002075195e+00
7.913410186767578125e+00,-1.724735498428344727e+00,2.922072649002075195e+00
7.976475238800048828e+00,-1.404437899589538574e+00,2.922072649002075195e+00
8.026594161987304688e+00,-1.081869959831237793e+00,2.922072649002075195e+00
8.063670158386230469e+00,-7.575417757034301758e-01,2.922072649002075195e+00
8.087644577026367188e+00,-4.319866895675659180e-01,2.922072649002075195e+00
8.098494529724121094e+00,-1.057232916355133057e-01,2.922072649002075195e+00
8.096170425415039062e+00,2.207072079181671143e-01,2.922072649002075195e+00
8.080703735351562500e+00,5.467855930328369141e-01,2.922072649002075195e+00
8.052103996276855469e+00,8.719701766967773438e-01,2.922072649002075195e+00
8.010434150695800781e+00,1.195733666419982910e+00,2.922072649002075195e+00
7.955740928649902344e+00,1.517564535140991211e+00,2.922072649002075195e+00
7.888126373291015625e+00,1.836927175521850586e+00,2.922072649002075195e+00
7.807692050933837891e+00,2.153301954269409180e+00,2.922072649002075195e+00
7.714576721191406250e+00,2.466191530227661133e+00,2.922072649002075195e+00
7.608935356140136719e+00,2.775060176849365234e+00,2.922072649002075195e+00
7.490929126739501953e+00,3.079409599304199219e+00,2.922072649002075195e+00
7.360745429992675781e+00,3.378780603408813477e+00,2.922072649002075195e+00
7.218621253967285156e+00,3.672651052474975586e+00,2.922072649002075195e+00
7.064750671386718750e+00,3.960561752319335938e+00,2.922072649002075195e+00
6.899425983428955078e+00,4.242036342620849609e+00,2.922072649002075195e+00
6.722871303558349609e+00,4.516613960266113281e+00,2.922072649002075195e+00
6.535400867462158203e+00,4.783849716186523438e+00,2.922072649002075195e+00
6.337309360504150391e+00,5.043327331542968750e+00,2.922072649002075195e+00
6.128934383392333984e+00,5.294600486755371094e+00,2.922072649002075195e+00
5.634343147277832031e+00,5.278438091278076172e+00,2.785495519638061523e+00
5.166068077087402344e+00,5.246315479278564453e+00,2.656431198120117188e+00
4.717521190643310547e+00,5.193772792816162109e+00,2.531436681747436523e+00
5.497141361236572266e+00,5.099844932556152344e+00,2.922072649002075195e+00
5.287159442901611328e+00,5.317214012145996094e+00,2.922072649002075195e+00
5.068605899810791016e+00,5.525948047637939453e+00,2.922072649002075195e+00
4.431338787078857422e+00,5.240289211273193359e+00,2.674349069595336914e+00
4.064811706542968750e+00,5.219718456268310547e+00,2.578096866607666016e+00
3.724273681640625000e+00,5.202036380767822266e+00,2.493151426315307617e+00
3.407146692276000977e+00,5.188798904418945312e+00,2.418981552124023438e+00
3.300374984741210938e+00,5.496901512145996094e+00,2.498538255691528320e+00
2.879281997680664062e+00,5.265367031097412109e+00,2.338613271713256836e+00
2.603617429733276367e+00,5.253720283508300781e+00,2.284946680068969727e+00
2.349042892456054688e+00,5.263053894042968750e+00,2.245978832244873047e+00
2.149622917175292969e+00,5.390015602111816406e+00,2.261319398880004883e+00
1.995748519897460938e+00,5.656684875488281250e+00,2.337532281875610352e+00
2.133707523345947266e+00,6.925498962402343750e+00,2.823977947235107422e+00
1.852900505065917969e+00,7.005847930908203125e+00,2.823977947235107422e+00
1.569077491760253906e+00,7.074831485748291016e+00,2.823977947235107422e+00
1.282710075378417969e+00,7.132321357727050781e+00,2.823977947235107422e+00
9.942545890808105469e-01,7.178206443786621094e+00,2.823977947235107422e+00
7.041836977005004883e-01,7.212435245513916016e+00,2.823977947235107422e+00
4.129700958728790283e-01,7.234972000122070312e+00,2.823977947235107422e+00
1.210858598351478577e-01,7.245736122131347656e+00,2.823977947235107422e+00
-1.709959656000137329e-01,7.244722366333007812e+00,2.823977947235107422e+00
-4.628020524978637695e-01,7.231955051422119141e+00,2.823977947235107422e+00
-7.538442015647888184e-01,7.207429409027099609e+00,2.823977947235107422e+00
-1.043671607971191406e+00,7.171201705932617188e+00,2.823977947235107422e+00
-1.331810712814331055e+00,7.123312473297119141e+00,2.823977947235107422e+00
-1.617772221565246582e+00,7.063862800598144531e+00,2.823977947235107422e+00
-1.901112675666809082e+00,6.992924213409423828e+00,2.823977947235107422e+00
-2.181357622146606445e+00,6.910645008087158203e+00,2.823977947235107422e+00
-2.458070755004882812e+00,6.817125797271728516e+00,2.823977947235107422e+00
-2.730792522430419922e+00,6.712545394897460938e+00,2.823977947235107422e+00
-2.999063730239868164e+00,6.597036361694335938e+00,2.823977947235107422e+00
-3.262469530105590820e+00,6.470822811126708984e+00,2.823977947235107422e+00
-3.520581245422363281e+00,6.334098815917968750e+00,2.823977947235107422e+00
-3.798287630081176758e+00,6.228611946105957031e+00,2.842927932739257812e+00
-4.154177188873291016e+00,6.232508182525634766e+00,2.918802976608276367e+00
-4.406891345977783203e+00,6.066837787628173828e+00,2.922072649002075195e+00
-4.647787570953369141e+00,5.884313583374023438e+00,2.922072649002075195e+00
-4.881135940551757812e+00,5.692245960235595703e+00,2.922072649002075195e+00
-5.106551170349121094e+00,5.490920066833496094e+00,2.922072649002075195e+00
-5.323670864105224609e+00,5.280698776245117188e+00,2.922072649002075195e+00
-5.532148361206054688e+00,5.061883449554443359e+00,2.922072649002075195e+00
-5.731628894805908203e+00,4.834835529327392578e+00,2.922072649002075195e+00
-5.921803474426269531e+00,4.599949359893798828e+00,2.922072649002075195e+00
-6.102361679077148438e+00,4.357572555541992188e+00,2.922072649002075195e+00
-6.273002624511718750e+00,4.108128070831298828e+00,2.922072649002075195e+00
-6.433454513549804688e+00,3.851996183395385742e+00,2.922072649002075195e+00
-6.583453178405761719e+00,3.589629888534545898e+00,2.922072649002075195e+00
-6.722757816314697266e+00,3.321424484252929688e+00,2.922072649002075195e+00
-6.851134300231933594e+00,3.047804117202758789e+00,2.922072649002075195e+00
-6.968395233154296875e+00,2.769247770309448242e+00,2.922072649002075195e+00
-7.074321269989013672e+00,2.486195325851440430e+00,2.922072649002075195e+00
-7.168762683868408203e+00,2.199103116989135742e+00,2.922072649002075195e+00
-7.251562118530273438e+00,1.908442378044128418e+00,2.922072649002075195e+00
-7.322576999664306641e+00,1.614669442176818848e+00,2.922072649002075195e+00
-7.381695270538330078e+00,1.318286418914794922e+00,2.922072649002075195e+00
-7.428819179534912109e+00,1.019750237464904785e+00,2.922072649002075195e+00
-7.463883876800537109e+00,7.195561528205871582e-01,2.922072649002075195e+00
-7.486814498901367188e+00,4.182143509387969971e-01,2.922072649002075195e+00
-7.497590541839599609e+00,1.161749437451362610e-01,2.922072649002075195e+00
-7.496176242828369141e+00,-1.860589683055877686e-01,2.922072649002075195e+00
-7.482589244842529297e+00,-4.879835844039916992e-01,2.922072649002075195e+00
-7.456846237182617188e+00,-7.891104817390441895e-01,2.922072649002075195e+00
-7.418995857238769531e+00,-1.088958382606506348e+00,2.922072649002075195e+00
-7.369087219238281250e+00,-1.387045979499816895e+00,2.922072649002075195e+00
-7.307204723358154297e+00,-1.682868957519531250e+00,2.922072649002075195e+00
-7.233458518981933594e+00,-1.975952982902526855e+00,2.922072649002075195e+00
-7.147957801818847656e+00,-2.265831470489501953e+00,2.922072649002075195e+00
-6.907259464263916016e+00,-2.500062942504882812e+00,2.862566232681274414e+00
-6.709224700927734375e+00,-2.738946914672851562e+00,2.823977947235107422e+00
-6.593401432037353516e+00,-3.007099628448486328e+00,2.823977947235107422e+00
-6.466865539550781250e+00,-3.270341157913208008e+00,2.823977947235107422e+00
-6.329834461212158203e+00,-3.528280735015869141e+00,2.823977947235107422e+00
-6.182507991790771484e+00,-3.780488252639770508e+00,2.823977947235107422e+00
-6.025143146514892578e+00,-4.026564598083496094e+00,2.823977947235107422e+00
