-1.499158287048339844e+01,-3.132108879089355469e+01,5.921401500701904297e+00
-1.371764278411865234e+01,-3.190065574645996094e+01,5.921567440032958984e+00
-6.311398506164550781e+00,-1.647718620300292969e+01,3.008887290954589844e+00
-9.879194259643554688e+00,-2.927210044860839844e+01,5.268318176269531250e+00
-9.007733345031738281e+00,-3.072486877441406250e+01,5.459961891174316406e+00
-6.256010055541992188e+00,-2.503509521484375000e+01,4.400447368621826172e+00
-5.247918128967285156e+00,-2.529496574401855469e+01,4.405342578887939453e+00
-2.341436862945556641e+00,-1.412613582611083984e+01,2.441763877868652344e+00
-2.112104892730712891e+00,-1.695251464843750000e+01,2.913220882415771484e+00
-1.382778167724609375e+00,-1.649336433410644531e+01,2.822438955307006836e+00
-6.964488029479980469e-01,-1.606128311157226562e+01,2.741463661193847656e+00
-4.737603664398193359e-02,-1.565265655517578125e+01,2.669221162796020508e+00
5.560210943222045898e-01,-1.490726470947265625e+01,2.543868064880371094e+00
1.131678462028503418e+00,-1.455623531341552734e+01,2.489730119705200195e+00
1.689431667327880859e+00,-1.426323795318603516e+01,2.449277877807617188e+00
2.229545593261718750e+00,-1.397497463226318359e+01,2.413256168365478516e+00
2.754044771194458008e+00,-1.369057464599609375e+01,2.381389856338500977e+00
2.684381484985351562e+00,-1.102561378479003906e+01,1.935093283653259277e+00
3.035886526107788086e+00,-1.059230804443359375e+01,1.879006266593933105e+00
4.251241683959960938e+00,-1.285272598266601562e+01,2.308528184890747070e+00
4.730042457580566406e+00,-1.257613182067871094e+01,2.291248798370361328e+00
5.201027870178222656e+00,-1.229973125457763672e+01,2.277256488800048828e+00
5.665452957153320312e+00,-1.202287483215332031e+01,2.266458749771118164e+00
6.272577285766601562e+00,-1.202878189086914062e+01,2.313380002975463867e+00
1.482484817504882812e+01,-2.583348083496093750e+01,5.079159259796142578e+00
1.848103141784667969e+01,-2.939357948303222656e+01,5.920845508575439453e+00
1.965049934387207031e+01,-2.862498092651367188e+01,5.920846939086914062e+00
2.078804588317871094e+01,-2.780987739562988281e+01,5.920846939086914062e+00
2.189182090759277344e+01,-2.694958877563476562e+01,5.920846939086914062e+00
2.296002197265625000e+01,-2.604551506042480469e+01,5.920845031738281250e+00
2.399093437194824219e+01,-2.509911918640136719e+01,5.920845031738281250e+00
2.498286056518554688e+01,-2.411198997497558594e+01,5.920846462249755859e+00
2.593422126770019531e+01,-2.308564949035644531e+01,5.920845031738281250e+00
2.684344673156738281e+01,-2.202183723449707031e+01,5.920845031738281250e+00
2.597553443908691406e+01,-1.961330986022949219e+01,5.550431251525878906e+00
2.436371421813964844e+01,-1.689907073974609375e+01,5.056276798248291016e+00
2.394989013671875000e+01,-1.522038364410400391e+01,4.839070320129394531e+00
3.003057289123535156e+01,-1.742690277099609375e+01,5.920845031738281250e+00
3.070841407775878906e+01,-1.620262145996093750e+01,5.920845031738281250e+00
3.133639144897460938e+01,-1.495198249816894531e+01,5.920844078063964844e+00
3.191348266601562500e+01,-1.367707633972167969e+01,5.920844078063964844e+00
3.241430282592773438e+01,-1.237063598632812500e+01,5.916395187377929688e+00
3.017917251586914062e+01,-1.014434528350830078e+01,5.429340362548828125e+00
3.330521774291992188e+01,-9.720177650451660156e+00,5.916395187377929688e+00
3.366986083984375000e+01,-8.370164871215820312e+00,5.916395187377929688e+00
3.397980880737304688e+01,-7.006585597991943359e+00,5.916395187377929688e+00
3.423455810546875000e+01,-5.631590366363525391e+00,5.916394710540771484e+00
3.443367767333984375e+01,-4.247463703155517578e+00,5.916394710540771484e+00
3.457687377929687500e+01,-2.856437206268310547e+00,5.916394710540771484e+00
3.466389846801757812e+01,-1.460736989974975586e+00,5.916394710540771484e+00
3.464952850341796875e+01,-6.264686584472656250e-02,5.908709049224853516e+00
3.466894531250000000e+01,1.335438251495361328e+00,5.916394710540771484e+00
3.458696746826171875e+01,2.731411933898925781e+00,5.916394710540771484e+00
3.444881439208984375e+01,4.122951984405517578e+00,5.916394710540771484e+00
3.425468826293945312e+01,5.507788658142089844e+00,5.916394710540771484e+00
3.400491333007812500e+01,6.883677959442138672e+00,5.916394710540771484e+00
2.889556884765625000e+01,7.072498321533203125e+00,5.072940349578857422e+00
3.334014129638671875e+01,9.599697113037109375e+00,5.916394710540771484e+00
3.294860839843750000e+01,1.094284152984619141e+01,5.920416831970214844e+00
3.248189544677734375e+01,1.226207065582275391e+01,5.920602798461914062e+00
3.196238327026367188e+01,1.356146144866943359e+01,5.920785903930664062e+00
3.139089202880859375e+01,1.483888626098632812e+01,5.920968055725097656e+00
3.076836776733398438e+01,1.609228897094726562e+01,5.921146869659423828e+00
3.009577941894531250e+01,1.731962013244628906e+01,5.921323299407958984e+00
2.937428092956542969e+01,1.851885604858398438e+01,5.921496391296386719e+00
2.860496139526367188e+01,1.968808174133300781e+01,5.921665668487548828e+00
2.778914260864257812e+01,2.082537841796875000e+01,5.921831607818603516e+00
2.639497756958007812e+01,2.149473381042480469e+01,5.804750442504882812e+00
2.550736427307128906e+01,2.254092025756835938e+01,5.804750442504882812e+00
2.256378746032714844e+01,2.162022209167480469e+01,5.328976154327392578e+00
2.408152008056640625e+01,2.501229095458984375e+01,5.920837402343750000e+00
2.305405616760253906e+01,2.596237564086914062e+01,5.920842170715332031e+00
2.198910522460937500e+01,2.687031555175781250e+01,5.920842170715332031e+00
2.088845062255859375e+01,2.773458671569824219e+01,5.920842170715332031e+00
1.975386428833007812e+01,2.855381393432617188e+01,5.920842170715332031e+00
1.858716583251953125e+01,2.932658195495605469e+01,5.920846939086914062e+00
1.739029884338378906e+01,3.005178260803222656e+01,5.920846939086914062e+00
1.616516304016113281e+01,3.072814559936523438e+01,5.920846939086914062e+00
1.491376209259033203e+01,3.135460090637207031e+01,5.920846939086914062e+00
1.363814449310302734e+01,3.193010520935058594e+01,5.920845985412597656e+00
1.234038162231445312e+01,3.245375061035156250e+01,5.920845985412597656e+00
1.101238250732421875e+01,3.289426803588867188e+01,5.915377616882324219e+00
9.677892684936523438e+00,3.331131744384765625e+01,5.915377616882324219e+00
8.267846107482910156e+00,3.343225097656250000e+01,5.872867107391357422e+00
7.129060745239257812e+00,3.478831481933593750e+01,6.055650711059570312e+00
5.977684974670410156e+00,3.661722946166992188e+01,6.326902866363525391e+00
4.716174125671386719e+00,3.862105941772460938e+01,6.634876251220703125e+00
1.609582185745239258e+00,1.977773475646972656e+01,3.383797645568847656e+00
1.695411682128906250e+00,4.143278884887695312e+01,7.071341037750244141e+00
2.403974533081054688e-02,4.085729980468750000e+01,6.967293262481689453e+00
-9.473886489868164062e-01,2.383939743041992188e+01,4.068480968475341797e+00
-1.412524580955505371e+00,1.761267280578613281e+01,3.013089656829833984e+00
-2.078994750976562500e+00,1.719309997558593750e+01,2.953253984451293945e+00
-2.720534086227416992e+00,1.678921890258789062e+01,2.900368213653564453e+00
-3.340481042861938477e+00,1.639893341064453125e+01,2.853898525238037109e+00
-3.941848278045654297e+00,1.602034568786621094e+01,2.813392400741577148e+00
-4.527318477630615234e+00,1.565176200866699219e+01,2.778470516204833984e+00
-5.099346160888671875e+00,1.529164314270019531e+01,2.748815536499023438e+00
-5.660202026367187500e+00,1.493855667114257812e+01,2.724165201187133789e+00
-6.211972713470458984e+00,1.459119033813476562e+01,2.704308032989501953e+00
-6.756635665893554688e+00,1.424830055236816406e+01,2.689075469970703125e+00
-7.296063423156738281e+00,1.390870380401611328e+01,2.678338766098022461e+00
-7.832073211669921875e+00,1.357125949859619141e+01,2.672011852264404297e+00
-8.366417884826660156e+00,1.323486423492431641e+01,2.670042276382446289e+00
-8.900851249694824219e+00,1.289841270446777344e+01,2.672412872314453125e+00
-9.437131881713867188e+00,1.256083297729492188e+01,2.679149866104125977e+00
-9.976968765258789062e+00,1.222097778320312500e+01,2.690296411514282227e+00
-1.052220821380615234e+01,1.187772178649902344e+01,2.705950736999511719e+00
-1.107472801208496094e+01,1.152988243103027344e+01,2.726243019104003906e+00
-1.163652229309082031e+01,1.117620468139648438e+01,2.751346111297607422e+00
-1.220969390869140625e+01,1.081536293029785156e+01,2.781474351882934570e+00
-1.279653167724609375e+01,1.044591712951660156e+01,2.816898584365844727e+00
-1.339949417114257812e+01,1.006632423400878906e+01,2.857938051223754883e+00
-1.402131366729736328e+01,9.674855232238769531e+00,2.904980897903442383e+00
-1.466500091552734375e+01,9.269621849060058594e+00,2.958484172821044922e+00
-1.533396244049072266e+01,8.848474502563476562e+00,3.018991470336914062e+00
-1.603201103210449219e+01,8.409019470214843750e+00,3.087145805358886719e+00
-1.676352500915527344e+01,7.948492527008056641e+00,3.163707971572875977e+00
-1.753351020812988281e+01,7.463747024536132812e+00,3.249575138092041016e+00
-1.898414993286132812e+01,7.192148208618164062e+00,3.461855411529541016e+00
-3.119823646545410156e+01,1.040228462219238281e+01,5.608094215393066406e+00
-3.031474494934082031e+01,8.767235755920410156e+00,5.381347656250000000e+00
-2.949299621582031250e+01,7.255518913269042969e+00,5.179319858551025391e+00
-3.343040847778320312e+01,6.808348655700683594e+00,5.817827701568603516e+00
-3.427175521850585938e+01,5.551889419555664062e+00,5.920466423034667969e+00
-2.919126892089843750e+01,7.332419395446777344e+00,5.920846462249755859e+00
-2.860479354858398438e+01,5.970992088317871094e+00,5.748379230499267578e+00
-2.761746406555175781e+01,4.612259387969970703e+00,5.508107185363769531e+00
-2.695441055297851562e+01,3.391612529754638672e+00,5.344241142272949219e+00
-2.632362556457519531e+01,2.239254236221313477e+00,5.197045803070068359e+00
-2.572088623046875000e+01,1.146711587905883789e+00,5.064797878265380859e+00
-2.950764656066894531e+01,1.252725124359130859e-01,5.804751396179199219e+00
-3.008288383483886719e+01,-1.085332870483398438e+00,5.921710014343261719e+00
-3.001468467712402344e+01,-2.296701669692993164e+00,5.921703815460205078e+00
-2.989775085449218750e+01,-3.504357576370239258e+00,5.921703338623046875e+00
-2.973228073120117188e+01,-4.706307411193847656e+00,5.921709060668945312e+00
-2.951854896545410156e+01,-5.900621414184570312e+00,5.921722888946533203e+00
-2.925689315795898438e+01,-7.085364341735839844e+00,5.921741962432861328e+00
-2.894773292541503906e+01,-8.258609771728515625e+00,5.921768665313720703e+00
-2.859158706665039062e+01,-9.418466567993164062e+00,5.921801567077636719e+00
-2.818428421020507812e+01,-1.056127166748046875e+01,5.920847892761230469e+00
-2.773579978942871094e+01,-1.168845176696777344e+01,5.920847892761230469e+00
-2.724226379394531250e+01,-1.279663276672363281e+01,5.920847892761230469e+00
-2.670446777343750000e+01,-1.388401889801025391e+01,5.920847892761230469e+00
-2.612328147888183594e+01,-1.494886112213134766e+01,5.920847892761230469e+00
-2.549967193603515625e+01,-1.598941707611083984e+01,5.920847892761230469e+00
-2.483462524414062500e+01,-1.700398635864257812e+01,5.920847892761230469e+00
-2.412924766540527344e+01,-1.799094200134277344e+01,5.920847892761230469e+00
-2.338466453552246094e+01,-1.894866561889648438e+01,5.920847892761230469e+00
-2.260209083557128906e+01,-1.987561225891113281e+01,5.920847892761230469e+00
-2.178279495239257812e+01,-2.077027511596679688e+01,5.920847892761230469e+00
-2.092812728881835938e+01,-2.163118362426757812e+01,5.920847892761230469e+00
-2.003944969177246094e+01,-2.245695686340332031e+01,5.920847892761230469e+00
-1.911855316162109375e+01,-2.324663352966308594e+01,5.920947551727294922e+00
-1.816661453247070312e+01,-2.399865341186523438e+01,5.921067237854003906e+00
-1.718512344360351562e+01,-2.471175765991210938e+01,5.921191215515136719e+00
-1.617570114135742188e+01,-2.538474273681640625e+01,5.921319961547851562e+00
-1.513997459411621094e+01,-2.601654434204101562e+01,5.921452045440673828e+00
-9.850558280944824219e+00,-1.861452293395996094e+01,4.142940044403076172e+00
-1.299632644653320312e+01,-2.715252494812011719e+01,5.921729564666748047e+00
-1.018713378906250000e+01,-2.369038772583007812e+01,5.072941303253173828e+00
-6.311398506164550781e+00,-1.647718620300292969e+01,3.471016168594360352e+00
-8.448663711547851562e+00,-2.503342247009277344e+01,5.197434425354003906e+00
-7.659331798553466797e+00,-2.612553977966308594e+01,5.355690956115722656e+00
-6.256003379821777344e+00,-2.503508377075195312e+01,5.076301097869873047e+00
-5.247917652130126953e+00,-2.529497909545898438e+01,5.081952571868896484e+00
-2.341438770294189453e+00,-1.412613201141357422e+01,2.816787719726562500e+00
-2.112104892730712891e+00,-1.695251464843750000e+01,3.360656023025512695e+00
-1.382771730422973633e+00,-1.649335861206054688e+01,3.255932092666625977e+00
-6.964472532272338867e-01,-1.606128120422363281e+01,3.162519693374633789e+00
-4.737770557403564453e-02,-1.565265846252441406e+01,3.079180955886840820e+00
5.693430900573730469e-01,-1.526440048217773438e+01,3.004877328872680664e+00
1.157930970191955566e+00,-1.489385318756103516e+01,2.938737154006958008e+00
1.722064256668090820e+00,-1.453869915008544922e+01,2.880024433135986328e+00
2.264956712722778320e+00,-1.419692039489746094e+01,2.828115224838256836e+00
2.789474487304687500e+00,-1.386670875549316406e+01,2.782484054565429688e+00
2.684382677078247070e+00,-1.102561187744140625e+01,2.232299804687500000e+00
3.035886526107788086e+00,-1.059230804443359375e+01,2.167598485946655273e+00
4.276899814605712891e+00,-1.293029594421386719e+01,2.679161310195922852e+00
4.669755458831787109e+00,-1.241583728790283203e+01,2.609467506408691406e+00
5.115180969238281250e+00,-1.209672546386718750e+01,2.583656311035156250e+00
5.555621147155761719e+00,-1.178978824615478516e+01,2.563870906829833984e+00
5.993319988250732422e+00,-1.149325561523437500e+01,2.549876689910888672e+00
1.482481861114501953e+01,-2.583343505859375000e+01,5.859246730804443359e+00
1.602048683166503906e+01,-2.548015022277832031e+01,5.920846939086914062e+00
1.703424453735351562e+01,-2.481386566162109375e+01,5.920845508575439453e+00
1.802034759521484375e+01,-2.410729598999023438e+01,5.920846462249755859e+00
1.897716140747070312e+01,-2.336154365539550781e+01,5.920844078063964844e+00
1.990313911437988281e+01,-2.257783508300781250e+01,5.920845031738281250e+00
2.079680824279785156e+01,-2.175745391845703125e+01,5.920845031738281250e+00
2.165667152404785156e+01,-2.090173912048339844e+01,5.920845031738281250e+00
2.248137855529785156e+01,-2.001206016540527344e+01,5.920845031738281250e+00
2.326952362060546875e+01,-1.908985900878906250e+01,5.920845031738281250e+00
2.401989173889160156e+01,-1.813665580749511719e+01,5.920845031738281250e+00
2.473125457763671875e+01,-1.715399551391601562e+01,5.920845031738281250e+00
2.355100059509277344e+01,-1.496688842773437500e+01,5.489319324493408203e+00
2.229806518554687500e+01,-1.293969058990478516e+01,5.071519851684570312e+00
2.198480606079101562e+01,-1.159979820251464844e+01,4.889896869659423828e+00
2.167957496643066406e+01,-1.034428691864013672e+01,4.725373268127441406e+00
2.766453742980957031e+01,-1.185611724853515625e+01,5.920842647552490234e+00
2.811984062194824219e+01,-1.073169422149658203e+01,5.920845031738281250e+00
2.852946090698242188e+01,-9.589809417724609375e+00,5.920845031738281250e+00
2.887098693847656250e+01,-8.426044464111328125e+00,5.916395187377929688e+00
2.918708229064941406e+01,-7.255775451660156250e+00,5.916395187377929688e+00
2.945576477050781250e+01,-6.073734283447265625e+00,5.916395187377929688e+00
2.967658233642578125e+01,-4.881807327270507812e+00,5.916395187377929688e+00
2.987167167663574219e+01,-3.684730291366577148e+00,5.920842170715332031e+00
2.999590301513671875e+01,-2.477989673614501953e+00,5.920842170715332031e+00
3.007138633728027344e+01,-1.267204523086547852e+00,5.920844554901123047e+00
3.009803771972656250e+01,-5.440878868103027344e-02,5.920842170715332031e+00
3.007578468322753906e+01,1.158518075942993164e+00,5.920842170715332031e+00
3.000466918945312500e+01,2.369549274444580078e+00,5.920842170715332031e+00
2.988480377197265625e+01,3.576720237731933594e+00,5.920842170715332031e+00
2.971640205383300781e+01,4.778085708618164062e+00,5.920842170715332031e+00
2.527515029907226562e+01,5.116495609283447266e+00,5.072940349578857422e+00
2.794560432434082031e+01,6.839983463287353516e+00,5.659687995910644531e+00
2.841977119445800781e+01,8.182943344116210938e+00,5.817827224731445312e+00
2.806692695617675781e+01,9.321543693542480469e+00,5.817827224731445312e+00
2.815650177001953125e+01,1.062921237945556641e+01,5.920438289642333984e+00
2.770605087280273438e+01,1.175552177429199219e+01,5.920597553253173828e+00
2.721055221557617188e+01,1.286278533935546875e+01,5.920754909515380859e+00
2.667082214355468750e+01,1.394921112060546875e+01,5.920910358428955078e+00
2.608771133422851562e+01,1.501304149627685547e+01,5.921062946319580078e+00
2.546218872070312500e+01,1.605249595642089844e+01,5.921212673187255859e+00
2.479524230957031250e+01,1.706594657897949219e+01,5.921359539031982422e+00
2.408797454833984375e+01,1.805169486999511719e+01,5.921504497528076172e+00
1.682277488708496094e+01,1.369963359832763672e+01,4.267865657806396484e+00
2.211133193969726562e+01,1.953983879089355469e+01,5.804750442504882812e+00
2.130596351623535156e+01,2.041498374938964844e+01,5.804750442504882812e+00
1.852392768859863281e+01,1.923987388610839844e+01,5.253922939300537109e+00
1.998465347290039062e+01,2.250576782226562500e+01,5.920842170715332031e+00
1.906148529052734375e+01,2.329282379150390625e+01,5.920837402343750000e+00
1.810737609863281250e+01,2.404202270507812500e+01,5.920842170715332031e+00
1.712384033203125000e+01,2.475217819213867188e+01,5.920837402343750000e+00
1.611249351501464844e+01,2.542211341857910156e+01,5.920837402343750000e+00
1.505935478210449219e+01,2.602374267578125000e+01,5.914718627929687500e+00
1.400000000000000000e+01,2.661241912841796875e+01,5.915377616882324219e+00
1.291621398925781250e+01,2.715497016906738281e+01,5.915377616882324219e+00
1.172657489776611328e+01,2.745466232299804688e+01,5.872866630554199219e+00
1.093145179748535156e+01,2.874843978881835938e+01,6.050395011901855469e+00
1.007818794250488281e+01,3.010378456115722656e+01,6.245023727416992188e+00
9.166677474975585938e+00,3.155168533325195312e+01,6.463442802429199219e+00
8.187446594238281250e+00,3.310714721679687500e+01,6.708987236022949219e+00
7.129062652587890625e+00,3.478831100463867188e+01,6.985723972320556641e+00
5.977683067321777344e+00,3.661723327636718750e+01,7.298638820648193359e+00
4.716176033020019531e+00,3.862105560302734375e+01,7.653912544250488281e+00
1.609581232070922852e+00,1.977773475646972656e+01,3.903509378433227539e+00
1.649227857589721680e+00,4.030417633056640625e+01,7.935212135314941406e+00
2.361392974853515625e-02,4.013066482543945312e+01,7.894444942474365234e+00
-9.473924636840820312e-01,2.383940315246582031e+01,4.693352222442626953e+00
-1.412524580955505371e+00,1.761267280578613281e+01,3.475864171981811523e+00
-2.078994750976562500e+00,1.719309997558593750e+01,3.406838417053222656e+00
-2.720534086227416992e+00,1.678921890258789062e+01,3.345829963684082031e+00
-3.340487480163574219e+00,1.639892959594726562e+01,3.292222499847412109e+00
-3.941848278045654297e+00,1.602034568786621094e+01,3.245495080947875977e+00
-4.527318477630615234e+00,1.565176200866699219e+01,3.205209255218505859e+00
-5.099346160888671875e+00,1.529164314270019531e+01,3.171000242233276367e+00
-5.660205364227294922e+00,1.493855476379394531e+01,3.142564773559570312e+00
-6.211975574493408203e+00,1.459118843078613281e+01,3.119657039642333984e+00
-6.756635665893554688e+00,1.424830055236816406e+01,3.102083921432495117e+00
-7.296063423156738281e+00,1.390870380401611328e+01,3.089699268341064453e+00
-7.832071781158447266e+00,1.357126140594482422e+01,3.082400560379028320e+00
-8.366420745849609375e+00,1.323486232757568359e+01,3.080128192901611328e+00
-8.900849342346191406e+00,1.289841270446777344e+01,3.082863330841064453e+00
-9.437129974365234375e+00,1.256083393096923828e+01,3.090634346008300781e+00
-9.976966857910156250e+00,1.222097873687744141e+01,3.103493928909301758e+00
-1.052220535278320312e+01,1.187772369384765625e+01,3.121552467346191406e+00
-1.107472801208496094e+01,1.152988243103027344e+01,3.144961357116699219e+00
-1.163652420043945312e+01,1.117620277404785156e+01,3.173919200897216797e+00
-1.220969581604003906e+01,1.081536197662353516e+01,3.208675384521484375e+00
-1.279653358459472656e+01,1.044591712951660156e+01,3.249539852142333984e+00
-1.339949321746826172e+01,1.006632423400878906e+01,3.296882867813110352e+00
-1.402131271362304688e+01,9.674856185913085938e+00,3.351150751113891602e+00
-1.466500663757324219e+01,9.269618034362792969e+00,3.412872076034545898e+00
-1.533396148681640625e+01,8.848476409912109375e+00,3.482672214508056641e+00
-1.603200721740722656e+01,8.409021377563476562e+00,3.561294317245483398e+00
-1.676352310180664062e+01,7.948492527008056641e+00,3.649614334106445312e+00
-1.753351402282714844e+01,7.463745117187500000e+00,3.748669862747192383e+00
-1.898414993286132812e+01,7.192148208618164062e+00,3.993554115295410156e+00
-2.855274391174316406e+01,9.520206451416015625e+00,5.920846462249755859e+00
-2.891319274902343750e+01,8.361898422241210938e+00,5.920846462249755859e+00
-2.922666549682617188e+01,7.190002441406250000e+00,5.920846939086914062e+00
-2.836604881286621094e+01,5.776956081390380859e+00,5.694671154022216797e+00
-2.753536415100097656e+01,4.460619449615478516e+00,5.487328529357910156e+00
-2.573110580444335938e+01,6.463280200958251953e+00,5.920847415924072266e+00
-2.597064971923828125e+01,5.421139717102050781e+00,5.920847415924072266e+00
-2.616802024841308594e+01,4.370192527770996094e+00,5.920846939086914062e+00
-2.632287216186523438e+01,3.312150001525878906e+00,5.920847415924072266e+00
-2.643496894836425781e+01,2.248723030090332031e+00,5.920847415924072266e+00
-2.539515876770019531e+01,1.132191181182861328e+00,5.673114776611328125e+00
-2.534649658203125000e+01,1.076138019561767578e-01,5.656675815582275391e+00
-2.422655296325683594e+01,-8.740476369857788086e-01,5.410203456878662109e+00
-2.370253753662109375e+01,-1.813701152801513672e+00,5.305202007293701172e+00
-2.319319534301757812e+01,-2.718503952026367188e+00,5.211502552032470703e+00
-2.269644165039062500e+01,-3.592606544494628906e+00,5.128269672393798828e+00
-2.221038818359375000e+01,-4.439754009246826172e+00,5.054793357849121094e+00
-2.527947616577148438e+01,-6.122124195098876953e+00,5.804751396179199219e+00
-2.551852416992187500e+01,-7.280279636383056641e+00,5.922248840332031250e+00
-2.519846343994140625e+01,-8.300725936889648438e+00,5.920847892761230469e+00
-2.484350395202636719e+01,-9.309407234191894531e+00,5.920847892761230469e+00
-2.444817161560058594e+01,-1.030297470092773438e+01,5.920847892761230469e+00
-2.401313972473144531e+01,-1.127979850769042969e+01,5.920847892761230469e+00
-2.353908920288085938e+01,-1.223829460144042969e+01,5.920847892761230469e+00
-2.302679824829101562e+01,-1.317692184448242188e+01,5.920847892761230469e+00
-2.247709655761718750e+01,-1.409412860870361328e+01,5.920847892761230469e+00
-2.189089012145996094e+01,-1.498844337463378906e+01,5.920847892761230469e+00
-2.126912117004394531e+01,-1.585840988159179688e+01,5.920847892761230469e+00
-2.061279678344726562e+01,-1.670261383056640625e+01,5.920847892761230469e+00
-1.992298126220703125e+01,-1.751968193054199219e+01,5.920847892761230469e+00
-1.920080184936523438e+01,-1.830829429626464844e+01,5.920847892761230469e+00
-1.844742965698242188e+01,-1.906715774536132812e+01,5.920847892761230469e+00
-1.766410064697265625e+01,-1.979504966735839844e+01,5.920847892761230469e+00
-1.655884170532226562e+01,-2.013422966003417969e+01,5.817822456359863281e+00
-1.573404312133789062e+01,-2.078514671325683594e+01,5.817822456359863281e+00
-1.324029827117919922e+01,-1.903920364379882812e+01,5.175455093383789062e+00
-1.221752166748046875e+01,-1.917311668395996094e+01,5.073791980743408203e+00
-1.163875961303710938e+01,-2.000006103515625000e+01,5.164213180541992188e+00
-9.850560188293457031e+00,-1.861452293395996094e+01,4.700054645538330078e+00
-1.040553569793701172e+01,-2.173971557617187500e+01,5.378813266754150391e+00
-9.744436264038085938e+00,-2.266089248657226562e+01,5.505020618438720703e+00
-6.311397552490234375e+00,-1.647718429565429688e+01,3.937774419784545898e+00
-8.483766555786132812e+00,-2.513742828369140625e+01,5.920845508575439453e+00
-7.463893890380859375e+00,-2.545888710021972656e+01,5.920843124389648438e+00
-6.256439208984375000e+00,-2.503683090209960938e+01,5.759330272674560547e+00
-5.248572826385498047e+00,-2.529811859130859375e+01,5.766055583953857422e+00
-2.341438293457031250e+00,-1.412613391876220703e+01,3.195570230484008789e+00
-2.112104892730712891e+00,-1.695251464843750000e+01,3.812574386596679688e+00
-1.382774949073791504e+00,-1.649336051940917969e+01,3.693767070770263672e+00
-6.964488029479980469e-01,-1.606128311157226562e+01,3.587794542312622070e+00
-4.737603664398193359e-02,-1.565265655517578125e+01,3.493248462677001953e+00
5.693447589874267578e-01,-1.526439857482910156e+01,3.408953189849853516e+00
1.157929301261901855e+00,-1.489385318756103516e+01,3.333919286727905273e+00
1.722059369087219238e+00,-1.453870296478271484e+01,3.267310380935668945e+00
2.264956712722778320e+00,-1.419692039489746094e+01,3.208420753479003906e+00
2.789474487304687500e+00,-1.386670875549316406e+01,3.156654119491577148e+00
2.684381961822509766e+00,-1.102561378479003906e+01,2.532485246658325195e+00
3.035890579223632812e+00,-1.059230995178222656e+01,2.459083318710327148e+00
4.276899814605712891e+00,-1.293029594421386719e+01,3.039437770843505859e+00
4.750991821289062500e+00,-1.263183021545410156e+01,3.011870145797729492e+00
5.217314243316650391e+00,-1.233825397491455078e+01,2.989611148834228516e+00
5.677539825439453125e+00,-1.204851913452148438e+01,2.972471952438354492e+00
6.940393924713134766e+00,-1.330943489074707031e+01,3.349884510040283203e+00
1.320496273040771484e+01,-2.301070404052734375e+01,5.920845508575439453e+00
1.412151432037353516e+01,-2.245989036560058594e+01,5.920845508575439453e+00
1.501512050628662109e+01,-2.187259674072265625e+01,5.920845031738281250e+00
1.588432407379150391e+01,-2.124977111816406250e+01,5.920845031738281250e+00
1.672771835327148438e+01,-2.059240913391113281e+01,5.920845031738281250e+00
1.754394721984863281e+01,-1.990160179138183594e+01,5.920845031738281250e+00
1.833168983459472656e+01,-1.917846298217773438e+01,5.920845031738281250e+00
1.908962821960449219e+01,-1.842417907714843750e+01,5.920845031738281250e+00
1.981657028198242188e+01,-1.763994789123535156e+01,5.920845031738281250e+00
2.051131057739257812e+01,-1.682707786560058594e+01,5.920845031738281250e+00
2.117272758483886719e+01,-1.598685932159423828e+01,5.920845031738281250e+00
2.179975891113281250e+01,-1.512067031860351562e+01,5.920845031738281250e+00
2.239137458801269531e+01,-1.422992992401123047e+01,5.920842647552490234e+00
2.294662857055664062e+01,-1.331605339050292969e+01,5.920845031738281250e+00
2.176183319091796875e+01,-1.148215866088867188e+01,5.491194248199462891e+00
2.071506500244140625e+01,-9.884078979492187500e+00,5.122311592102050781e+00
2.038927459716796875e+01,-8.738180160522460938e+00,4.950586795806884766e+00
1.958617782592773438e+01,-7.474895477294921875e+00,4.678590297698974609e+00
1.934321975708007812e+01,-6.501976013183593750e+00,4.554212570190429688e+00
1.910127449035644531e+01,-5.574734687805175781e+00,4.440706729888916016e+00
2.574680328369140625e+01,-6.400524616241455078e+00,5.920845031738281250e+00
2.598380279541015625e+01,-5.357815742492675781e+00,5.920842647552490234e+00
2.617860603332519531e+01,-4.306382179260253906e+00,5.920842647552490234e+00
2.633088493347167969e+01,-3.247962236404418945e+00,5.920845031738281250e+00
2.644037246704101562e+01,-2.184264659881591797e+00,5.920842647552490234e+00
2.650692558288574219e+01,-1.116993188858032227e+00,5.920842170715332031e+00
2.653039932250976562e+01,-4.796457290649414062e-02,5.920844554901123047e+00
2.651078605651855469e+01,1.021196842193603516e+00,5.920842170715332031e+00
2.644809913635253906e+01,2.088675498962402344e+00,5.920842170715332031e+00
2.634245300292968750e+01,3.152759552001953125e+00,5.920844554901123047e+00
2.293954467773437500e+01,3.688434123992919922e+00,5.185214519500732422e+00
2.517608642578125000e+01,5.096443176269531250e+00,5.732560157775878906e+00
2.534282684326171875e+01,6.202905654907226562e+00,5.822752475738525391e+00
2.507228279113769531e+01,7.219093799591064453e+00,5.822752475738525391e+00
2.476100158691406250e+01,8.223583221435546875e+00,5.822752475738525391e+00
2.482073020935058594e+01,9.369941711425781250e+00,5.920846939086914062e+00
2.442297744750976562e+01,1.036253070831298828e+01,5.920846939086914062e+00
2.398556518554687500e+01,1.133829021453857422e+01,5.920846939086914062e+00
2.350918006896972656e+01,1.229562854766845703e+01,5.920846939086914062e+00
2.299459838867187500e+01,1.323300457000732422e+01,5.920846939086914062e+00
2.244267272949218750e+01,1.414885997772216797e+01,5.920846939086914062e+00
2.185428237915039062e+01,1.504175758361816406e+01,5.920846939086914062e+00
1.774950981140136719e+01,1.330162525177001953e+01,4.950081825256347656e+00
1.632040405273437500e+01,1.329052925109863281e+01,4.697191715240478516e+00
1.586255645751953125e+01,1.401779651641845703e+01,4.724286556243896484e+00
1.883874511718750000e+01,1.805093193054199219e+01,5.822752475738525391e+00
1.809602737426757812e+01,1.879541969299316406e+01,5.822752475738525391e+00
1.553572845458984375e+01,1.749558639526367188e+01,5.221717834472656250e+00
1.680206298828125000e+01,2.053183746337890625e+01,5.920842170715332031e+00
1.596103477478027344e+01,2.119223976135253906e+01,5.920842170715332031e+00
1.509408664703369141e+01,2.181821441650390625e+01,5.920837402343750000e+00
1.420262432098388672e+01,2.240873146057128906e+01,5.920842170715332031e+00
1.327579689025878906e+01,2.294161224365234375e+01,5.915377616882324219e+00
1.234053039550781250e+01,2.345795440673828125e+01,5.915377616882324219e+00
1.138521671295166016e+01,2.393619155883789062e+01,5.915377616882324219e+00
1.172636795043945312e+01,2.745417404174804688e+01,6.662491321563720703e+00
1.093145561218261719e+01,2.874843215942382812e+01,6.864011287689208984e+00
1.007818603515625000e+01,3.010378837585449219e+01,7.084813117980957031e+00
9.166680335998535156e+00,3.155167770385742188e+01,7.332602500915527344e+00
8.187451362609863281e+00,3.310713958740234375e+01,7.611166477203369141e+00
7.129057884216308594e+00,3.478831863403320312e+01,7.925117969512939453e+00
5.955055236816406250e+00,3.647853088378906250e+01,8.248744964599609375e+00
4.455439567565917969e+00,3.648588180541992188e+01,8.203107833862304688e+00
1.609583139419555664e+00,1.977773094177246094e+01,4.428425312042236328e+00
1.487556457519531250e+00,3.635338211059570312e+01,8.119839668273925781e+00
1.560020446777343750e-02,2.650592994689941406e+01,5.915377616882324219e+00
-9.473924636840820312e-01,2.383940315246582031e+01,5.324482440948486328e+00
-1.412527918815612793e+00,1.761267089843750000e+01,3.943273305892944336e+00
-2.078994750976562500e+00,1.719309997558593750e+01,3.864967107772827148e+00
-2.720527648925781250e+00,1.678922271728515625e+01,3.795754909515380859e+00
-3.340481042861938477e+00,1.639893341064453125e+01,3.734938859939575195e+00
-3.941848278045654297e+00,1.602034568786621094e+01,3.681927204132080078e+00
-4.527315139770507812e+00,1.565176582336425781e+01,3.636225461959838867e+00
-5.099346160888671875e+00,1.529164314270019531e+01,3.597415208816528320e+00
-5.660202026367187500e+00,1.493855667114257812e+01,3.565154790878295898e+00
-6.211969375610351562e+00,1.459119415283203125e+01,3.539167165756225586e+00
-6.756633758544921875e+00,1.424830055236816406e+01,3.519231081008911133e+00
-7.296063423156738281e+00,1.390870380401611328e+01,3.505180835723876953e+00
-7.832073211669921875e+00,1.357125949859619141e+01,3.496900320053100586e+00
-8.366420745849609375e+00,1.323486232757568359e+01,3.494322538375854492e+00
-8.900849342346191406e+00,1.289841270446777344e+01,3.497426033020019531e+00
-9.437129974365234375e+00,1.256083393096923828e+01,3.506242752075195312e+00
-9.976966857910156250e+00,1.222097873687744141e+01,3.520830631256103516e+00
-1.052220821380615234e+01,1.187772178649902344e+01,3.541317462921142578e+00
-1.107472991943359375e+01,1.152988052368164062e+01,3.567873954772949219e+00
-1.163652229309082031e+01,1.117620468139648438e+01,3.600725412368774414e+00
-1.220969772338867188e+01,1.081536102294921875e+01,3.640156030654907227e+00
-1.279653358459472656e+01,1.044591712951660156e+01,3.686516046524047852e+00
-1.339949417114257812e+01,1.006632423400878906e+01,3.740224838256835938e+00
-1.402131271362304688e+01,9.674856185913085938e+00,3.801790714263916016e+00
-1.466500473022460938e+01,9.269618988037109375e+00,3.871811389923095703e+00
-1.533396148681640625e+01,8.848476409912109375e+00,3.950998544692993164e+00
-1.603200721740722656e+01,8.409021377563476562e+00,4.040193080902099609e+00
-1.676352310180664062e+01,7.948494434356689453e+00,4.140389442443847656e+00
-1.753351402282714844e+01,7.463744163513183594e+00,4.252766132354736328e+00
-1.898415184020996094e+01,7.192148208618164062e+00,4.530580043792724609e+00
-2.516829109191894531e+01,8.391744613647460938e+00,5.920846462249755859e+00
-2.548600578308105469e+01,7.370725631713867188e+00,5.920846939086914062e+00
-2.576232719421386719e+01,6.337744235992431641e+00,5.920846939086914062e+00
-2.599678611755371094e+01,5.294440269470214844e+00,5.920846939086914062e+00
-2.618902587890625000e+01,4.242521286010742188e+00,5.920847415924072266e+00
-2.297663116455078125e+01,5.771396160125732422e+00,5.920847415924072266e+00
-2.319054412841796875e+01,4.840810775756835938e+00,5.920847415924072266e+00
-2.336677169799804688e+01,3.902369022369384766e+00,5.920847415924072266e+00
-2.350504875183105469e+01,2.957585096359252930e+00,5.920847415924072266e+00
-2.360516548156738281e+01,2.008018970489501953e+00,5.920837879180908203e+00
-2.366691589355468750e+01,1.055150747299194336e+00,5.920842647552490234e+00
-2.369021606445312500e+01,1.005926132202148438e-01,5.920838356018066406e+00
-2.367502403259277344e+01,-8.541338443756103516e-01,5.920838356018066406e+00
-2.368079948425292969e+01,-1.812024354934692383e+00,5.935730934143066406e+00
-2.344334602355957031e+01,-2.747824668884277344e+00,5.899215221405029297e+00
-2.247126388549804688e+01,-3.556965351104736328e+00,5.686077594757080078e+00
-2.190818405151367188e+01,-4.379344940185546875e+00,5.583750247955322266e+00
-2.007575035095214844e+01,-4.861895561218261719e+00,5.162493228912353516e+00
-2.238502120971679688e+01,-6.386306762695312500e+00,5.817828178405761719e+00
-2.210950088500976562e+01,-7.283177852630615234e+00,5.817828178405761719e+00
-2.179804611206054688e+01,-8.168207168579101562e+00,5.817828178405761719e+00
-2.145118141174316406e+01,-9.039980888366699219e+00,5.817828178405761719e+00
-2.144256401062011719e+01,-1.007231044769287109e+01,5.920847892761230469e+00
-2.101925849914550781e+01,-1.092820072174072266e+01,5.920847892761230469e+00
-2.056180381774902344e+01,-1.176634693145751953e+01,5.920847892761230469e+00
-2.007095527648925781e+01,-1.258537101745605469e+01,5.920847892761230469e+00
-1.954749870300292969e+01,-1.338395118713378906e+01,5.920847892761230469e+00
-1.899228668212890625e+01,-1.416078567504882812e+01,5.920847892761230469e+00
-1.840623092651367188e+01,-1.491462516784667969e+01,5.920847892761230469e+00
-1.779025268554687500e+01,-1.564421939849853516e+01,5.920847892761230469e+00
-1.714538383483886719e+01,-1.634841918945312500e+01,5.920847892761230469e+00
-1.647266197204589844e+01,-1.702604866027832031e+01,5.920847892761230469e+00
-1.549872112274169922e+01,-1.736844635009765625e+01,5.817822456359863281e+00
-1.478623485565185547e+01,-1.797888374328613281e+01,5.817822456359863281e+00
-1.404973220825195312e+01,-1.856012344360351562e+01,5.817822456359863281e+00
-1.324029922485351562e+01,-1.903920364379882812e+01,5.795897960662841797e+00
-1.144226074218750000e+01,-1.795648574829101562e+01,5.321493148803710938e+00
-1.020916748046875000e+01,-1.754344367980957031e+01,5.072941303253173828e+00
-9.850564956665039062e+00,-1.861452674865722656e+01,5.263506889343261719e+00
-1.022798347473144531e+01,-2.136874771118164062e+01,5.920840740203857422e+00
-9.358577728271484375e+00,-2.176354789733886719e+01,5.920843124389648438e+00
-6.311400413513183594e+00,-1.647718429565429688e+01,4.409841060638427734e+00
-7.575591087341308594e+00,-2.244650650024414062e+01,5.920843124389648438e+00
-6.664895057678222656e+00,-2.273354530334472656e+01,5.920843124389648438e+00
-5.743385314941406250e+00,-2.298366165161132812e+01,5.920843124389648438e+00
-4.812540054321289062e+00,-2.319642829895019531e+01,5.920845508575439453e+00
-2.341437816619873047e+00,-1.412613391876220703e+01,3.578661680221557617e+00
-2.112104892730712891e+00,-1.695251464843750000e+01,4.269632816314697266e+00
-1.382774949073791504e+00,-1.649336051940917969e+01,4.136583805084228516e+00
-6.964488029479980469e-01,-1.606128311157226562e+01,4.017905712127685547e+00
-4.737770557403564453e-02,-1.565265846252441406e+01,3.912026166915893555e+00
5.693398714065551758e-01,-1.526440048217773438e+01,3.817625284194946289e+00
1.157929301261901855e+00,-1.489385318756103516e+01,3.733595848083496094e+00
1.722062587738037109e+00,-1.453870105743408203e+01,3.659001350402832031e+00
2.264955043792724609e+00,-1.419692230224609375e+01,3.593052625656127930e+00
2.789474487304687500e+00,-1.386670875549316406e+01,3.535079240798950195e+00
2.684383153915405273e+00,-1.102561187744140625e+01,2.836084365844726562e+00
3.035890579223632812e+00,-1.059230995178222656e+01,2.753882646560668945e+00
4.276899814605712891e+00,-1.293029594421386719e+01,3.403810024261474609e+00
4.750995159149169922e+00,-1.263182830810546875e+01,3.372937917709350586e+00
5.217315673828125000e+00,-1.233825302124023438e+01,3.348011493682861328e+00
5.677539825439453125e+00,-1.204851913452148438e+01,3.328817605972290039e+00
6.940393447875976562e+00,-1.330943393707275391e+01,3.751474618911743164e+00
1.179139614105224609e+01,-2.054745101928710938e+01,5.920845508575439453e+00
1.260982990264892578e+01,-2.005559921264648438e+01,5.920845031738281250e+00
1.340777492523193359e+01,-1.953115844726562500e+01,5.920845031738281250e+00
1.418392753601074219e+01,-1.897500419616699219e+01,5.920845031738281250e+00
1.493704032897949219e+01,-1.838801765441894531e+01,5.920845031738281250e+00
1.566589832305908203e+01,-1.777116775512695312e+01,5.920845031738281250e+00
1.636930656433105469e+01,-1.712543487548828125e+01,5.920845031738281250e+00
1.704611587524414062e+01,-1.645190429687500000e+01,5.920845031738281250e+00
1.769523811340332031e+01,-1.575161552429199219e+01,5.920845031738281250e+00
1.831560516357421875e+01,-1.502575492858886719e+01,5.920845031738281250e+00
1.890622520446777344e+01,-1.427549171447753906e+01,5.920842647552490234e+00
1.946612548828125000e+01,-1.350202560424804688e+01,5.920845031738281250e+00
1.999440383911132812e+01,-1.270662593841552734e+01,5.920842647552490234e+00
2.049020385742187500e+01,-1.189057731628417969e+01,5.920845031738281250e+00
2.095272445678710938e+01,-1.105524063110351562e+01,5.920845031738281250e+00
2.138119888305664062e+01,-1.020191574096679688e+01,5.920845031738281250e+00
2.038140678405761719e+01,-8.734808921813964844e+00,5.541931152343750000e+00
1.945390892028808594e+01,-7.424412727355957031e+00,5.204084873199462891e+00
1.870232009887695312e+01,-6.286548614501953125e+00,4.931199550628662109e+00
1.830898284912109375e+01,-5.343502044677734375e+00,4.766792297363281250e+00
1.809515380859375000e+01,-4.498366832733154297e+00,4.660098075866699219e+00
1.787958145141601562e+01,-3.686741352081298828e+00,4.562582015991210938e+00
1.766207313537597656e+01,-2.905412912368774414e+00,4.473540306091308594e+00
1.744244003295898438e+01,-2.151560783386230469e+00,4.392360210418701172e+00
2.360997390747070312e+01,-1.950441837310791016e+00,5.920842647552490234e+00
2.366939735412597656e+01,-9.974224567413330078e-01,5.920842647552490234e+00
2.369035911560058594e+01,-4.282426834106445312e-02,5.920844554901123047e+00
2.029587936401367188e+01,7.817938327789306641e-01,5.076232433319091797e+00
2.023476028442382812e+01,1.597986221313476562e+00,5.072940349578857422e+00
2.109012603759765625e+01,2.524138689041137695e+00,5.308590412139892578e+00
2.293954086303710938e+01,3.688432216644287109e+00,5.806828498840332031e+00
2.283473014831542969e+01,4.622460365295410156e+00,5.822752475738525391e+00
2.262990760803222656e+01,5.538892745971679688e+00,5.822752475738525391e+00
2.238832855224609375e+01,6.446300029754638672e+00,5.822752475738525391e+00
2.247860717773437500e+01,7.465558052062988281e+00,5.919728755950927734e+00
2.216370201110839844e+01,8.366899490356445312e+00,5.920846939086914062e+00
2.180852890014648438e+01,9.253233909606933594e+00,5.920846939086914062e+00
2.141793632507324219e+01,1.012453842163085938e+01,5.920846939086914062e+00
2.099254798889160156e+01,1.097939682006835938e+01,5.920846939086914062e+00
2.053306007385253906e+01,1.181643009185791016e+01,5.920846939086914062e+00
2.004021835327148438e+01,1.263424587249755859e+01,5.920846939086914062e+00
1.951480865478515625e+01,1.343155479431152344e+01,5.920846939086914062e+00
1.842862129211425781e+01,1.381055545806884766e+01,5.755606174468994141e+00
1.533739852905273438e+01,1.249001693725585938e+01,4.943460941314697266e+00
1.491263008117675781e+01,1.317834377288818359e+01,4.973813056945800781e+00
1.682207679748535156e+01,1.611860275268554688e+01,5.822752475738525391e+00
1.615887641906738281e+01,1.678339767456054688e+01,5.822752475738525391e+00
1.546943378448486328e+01,1.742091178894042969e+01,5.822752475738525391e+00
1.310009384155273438e+01,1.600808334350585938e+01,5.169735431671142578e+00
1.425242900848388672e+01,1.892363548278808594e+01,5.920837402343750000e+00
1.347828292846679688e+01,1.948260498046875000e+01,5.920837402343750000e+00
1.268225002288818359e+01,2.000991249084472656e+01,5.920837402343750000e+00
1.186560630798339844e+01,2.050471687316894531e+01,5.920842170715332031e+00
1.102968502044677734e+01,2.096621131896972656e+01,5.920837402343750000e+00
1.016644477844238281e+01,2.137386131286621094e+01,5.915377616882324219e+00
9.296876907348632812e+00,2.176617240905761719e+01,5.915377616882324219e+00
8.412216186523437500e+00,2.212312698364257812e+01,5.915377616882324219e+00
1.007818603515625000e+01,3.010378837585449219e+01,7.934152126312255859e+00
9.166681289672851562e+00,3.155167770385742188e+01,8.211647033691406250e+00
8.149489402770996094e+00,3.295365905761718750e+01,8.484091758728027344e+00
6.777105331420898438e+00,3.307083129882812500e+01,8.437027931213378906e+00
5.410168647766113281e+00,3.314080429077148438e+01,8.392394065856933594e+00
2.848329544067382812e+00,2.332514572143554688e+01,5.872867107391357422e+00
1.609581232070922852e+00,1.977773475646972656e+01,4.959315299987792969e+00
9.676873683929443359e-01,2.364871597290039062e+01,5.915377616882324219e+00
1.392555236816406250e-02,2.366850280761718750e+01,5.915377616882324219e+00
-9.407210350036621094e-01,2.367170333862304688e+01,5.920846462249755859e+00
-1.412524580955505371e+00,1.761267280578613281e+01,4.416000366210937500e+00
-2.078994750976562500e+00,1.719309997558593750e+01,4.328305721282958984e+00
-2.720527648925781250e+00,1.678922271728515625e+01,4.250795841217041016e+00
-3.340484142303466797e+00,1.639893150329589844e+01,4.182689189910888672e+00
-3.941848278045654297e+00,1.602034568786621094e+01,4.123322963714599609e+00
-4.527315139770507812e+00,1.565176582336425781e+01,4.072142124176025391e+00
-5.099346160888671875e+00,1.529164314270019531e+01,4.028679847717285156e+00
-5.660205364227294922e+00,1.493855476379394531e+01,3.992552280426025391e+00
-6.211972713470458984e+00,1.459119033813476562e+01,3.963449478149414062e+00
-6.756633758544921875e+00,1.424830055236816406e+01,3.941123485565185547e+00
-7.296063423156738281e+00,1.390870380401611328e+01,3.925388574600219727e+00
-7.832073211669921875e+00,1.357125949859619141e+01,3.916115999221801758e+00
-8.366422653198242188e+00,1.323486137390136719e+01,3.913228273391723633e+00
-8.900851249694824219e+00,1.289841270446777344e+01,3.916703462600708008e+00
-9.437129974365234375e+00,1.256083393096923828e+01,3.926577329635620117e+00
-9.976968765258789062e+00,1.222097778320312500e+01,3.942914009094238281e+00
-1.052220821380615234e+01,1.187772178649902344e+01,3.965857028961181641e+00
-1.107473373413085938e+01,1.152987861633300781e+01,3.995597362518310547e+00
-1.163652229309082031e+01,1.117620468139648438e+01,4.032387256622314453e+00
-1.220969390869140625e+01,1.081536293029785156e+01,4.076546192169189453e+00
-1.279653358459472656e+01,1.044591712951660156e+01,4.128461837768554688e+00
-1.339949417114257812e+01,1.006632423400878906e+01,4.188610076904296875e+00
-1.402131271362304688e+01,9.674856185913085938e+00,4.257556438446044922e+00
-1.466500473022460938e+01,9.269618988037109375e+00,4.335971832275390625e+00
-1.533396244049072266e+01,8.848474502563476562e+00,4.424652099609375000e+00
-1.603200721740722656e+01,8.409021377563476562e+00,4.524538993835449219e+00
-1.676352500915527344e+01,7.948492527008056641e+00,4.636747837066650391e+00
-1.753351211547851562e+01,7.463746070861816406e+00,4.762595176696777344e+00
-1.898414993286132812e+01,7.192148208618164062e+00,5.073714256286621094e+00
-2.247406005859375000e+01,7.493413925170898438e+00,5.920846939086914062e+00
-2.275775527954101562e+01,6.581705570220947266e+00,5.920847415924072266e+00
-2.300449943542480469e+01,5.659298419952392578e+00,5.920847415924072266e+00
-2.321386146545410156e+01,4.727674007415771484e+00,5.920847415924072266e+00
-2.338551902770996094e+01,3.788360118865966797e+00,5.920847415924072266e+00
-2.072929191589355469e+01,5.206896305084228516e+00,5.920847415924072266e+00
-2.092227935791015625e+01,4.367333412170410156e+00,5.920847415924072266e+00
-2.108131027221679688e+01,3.520704507827758789e+00,5.920837879180908203e+00
-2.120607376098632812e+01,2.668324232101440430e+00,5.920837879180908203e+00
-2.129636001586914062e+01,1.811610698699951172e+00,5.920842647552490234e+00
-2.135207176208496094e+01,9.519517421722412109e-01,5.920837879180908203e+00
-2.137309646606445312e+01,9.075105190277099609e-02,5.920837879180908203e+00
-2.135937881469726562e+01,-7.705949544906616211e-01,5.920837879180908203e+00
-2.131097412109375000e+01,-1.630685210227966309e+00,5.920838356018066406e+00
-2.122794914245605469e+01,-2.488148212432861328e+00,5.920843124389648438e+00
-2.111043930053710938e+01,-3.341549873352050781e+00,5.920843124389648438e+00
-1.820246124267578125e+01,-3.638585805892944336e+00,5.142228603363037109e+00
-1.935251998901367188e+01,-4.686745166778564453e+00,5.516034126281738281e+00
-2.021265411376953125e+01,-5.766547679901123047e+00,5.822753429412841797e+00
-1.996386146545410156e+01,-6.576376914978027344e+00,5.822753429412841797e+00
-1.968263244628906250e+01,-7.375513553619384766e+00,5.822753429412841797e+00
-1.936943244934082031e+01,-8.162688255310058594e+00,5.822753429412841797e+00
-1.934527587890625000e+01,-9.087144851684570312e+00,5.920847892761230469e+00
-1.896337509155273438e+01,-9.859317779541015625e+00,5.920847892761230469e+00
-1.855066680908203125e+01,-1.061548614501953125e+01,5.920847892761230469e+00
-1.810782623291015625e+01,-1.135440540313720703e+01,5.920847892761230469e+00
-1.763556861877441406e+01,-1.207487201690673828e+01,5.920847892761230469e+00
-1.713466262817382812e+01,-1.277572536468505859e+01,5.920847892761230469e+00
-1.660591697692871094e+01,-1.345582866668701172e+01,5.920847892761230469e+00
-1.605019569396972656e+01,-1.411406898498535156e+01,5.920847892761230469e+00
-1.546840095520019531e+01,-1.474939060211181641e+01,5.920847892761230469e+00
-1.486147499084472656e+01,-1.536074066162109375e+01,5.920847892761230469e+00
-1.399465274810791016e+01,-1.568293476104736328e+01,5.822753429412841797e+00
-1.335130882263183594e+01,-1.623413085937500000e+01,5.822753429412841797e+00
