1.878716278076171875e+01,-6.148232460021972656e+00,3.339126706123352051e-01
2.524632453918457031e+01,-7.149489402770996094e+00,4.432163834571838379e-01
2.551390647888183594e+01,-6.126328468322753906e+00,4.432163834571838379e-01
2.574005508422851562e+01,-5.093211174011230469e+00,4.432163834571838379e-01
2.592439651489257812e+01,-4.051822662353515625e+00,4.432151913642883301e-01
7.521462440490722656e+00,-8.667619228363037109e-01,1.278928816318511963e-01
7.120863914489746094e+00,-5.309450626373291016e-01,1.206192076206207275e-01
7.109115600585937500e+00,-2.426216602325439453e-01,1.201567947864532471e-01
7.350666046142578125e+00,4.552602767944335938e-02,1.241695880889892578e-01
7.609341144561767578e+00,3.541023731231689453e-01,1.286757588386535645e-01
7.887965202331542969e+00,6.864750385284423828e-01,1.337468326091766357e-01
2.602740287780761719e+01,3.326472282409667969e+00,4.432151913642883301e-01
2.587231636047363281e+01,4.372601985931396484e+00,4.432151913642883301e-01
2.567510223388671875e+01,5.411637783050537109e+00,4.432151913642883301e-01
2.543616867065429688e+01,6.441879749298095703e+00,4.432151913642883301e-01
2.515591430664062500e+01,7.461657047271728516e+00,4.432151913642883301e-01
2.483479690551757812e+01,8.469300270080566406e+00,4.432151913642883301e-01
2.447333526611328125e+01,9.463199615478515625e+00,4.432151913642883301e-01
2.407212448120117188e+01,1.044170665740966797e+01,4.432151913642883301e-01
2.363179397583007812e+01,1.140328025817871094e+01,4.432151913642883301e-01
2.315308570861816406e+01,1.234629440307617188e+01,4.432151913642883301e-01
2.263678359985351562e+01,1.326930999755859375e+01,4.432127475738525391e-01
2.208364295959472656e+01,1.417070484161376953e+01,4.432127475738525391e-01
2.149470138549804688e+01,1.504912662506103516e+01,4.432151913642883301e-01
2.087082290649414062e+01,1.590309524536132812e+01,4.432127475738525391e-01
1.346767044067382812e+01,1.114776611328125000e+01,2.953190207481384277e-01
1.952240562438964844e+01,1.753216552734375000e+01,4.432151913642883301e-01
1.880005264282226562e+01,1.830461883544921875e+01,4.432151913642883301e-01
1.804716491699218750e+01,1.904735565185546875e+01,4.432127475738525391e-01
1.726495361328125000e+01,1.975914192199707031e+01,4.432151913642883301e-01
1.645468521118164062e+01,2.043883514404296875e+01,4.432127475738525391e-01
1.561771678924560547e+01,2.108530426025390625e+01,4.432103037834167480e-01
1.475535869598388672e+01,2.169754409790039062e+01,4.432127475738525391e-01
1.386902332305908203e+01,2.227452850341796875e+01,4.432127475738525391e-01
1.296016120910644531e+01,2.281530380249023438e+01,4.432127475738525391e-01
1.203023815155029297e+01,2.331905937194824219e+01,4.432127475738525391e-01
1.108077526092529297e+01,2.378489685058593750e+01,4.432127475738525391e-01
1.011330032348632812e+01,2.421209716796875000e+01,4.432127475738525391e-01
9.129438400268554688e+00,2.459998893737792969e+01,4.432078599929809570e-01
8.130710601806640625e+00,2.494791603088378906e+01,4.432127475738525391e-01
7.118773460388183594e+00,2.525528717041015625e+01,4.432127475738525391e-01
6.095282554626464844e+00,2.552163314819335938e+01,4.432127475738525391e-01
5.061861038208007812e+00,2.574653625488281250e+01,4.432127475738525391e-01
4.020253181457519531e+00,2.592958641052246094e+01,4.432127475738525391e-01
2.972100257873535156e+00,2.607064819335937500e+01,4.432078599929809570e-01
1.919122219085693359e+00,2.616914367675781250e+01,4.432127475738525391e-01
8.630208969116210938e-01,2.622521591186523438e+01,4.432127475738525391e-01
-1.945004463195800781e-01,2.623869705200195312e+01,4.432127475738525391e-01
-1.251685142517089844e+00,2.620963287353515625e+01,4.432127475738525391e-01
-2.306843280792236328e+00,2.613790702819824219e+01,4.432127475738525391e-01
-3.358246803283691406e+00,2.602372360229492188e+01,4.432078599929809570e-01
-4.404181480407714844e+00,2.586715698242187500e+01,4.432127475738525391e-01
-5.442994594573974609e+00,2.566876220703125000e+01,4.432078599929809570e-01
-6.472945690155029297e+00,2.542856407165527344e+01,4.432127475738525391e-01
-7.492415428161621094e+00,2.514707183837890625e+01,4.432078599929809570e-01
-4.546939373016357422e+00,1.328013992309570312e+01,2.371116131544113159e-01
-5.010006904602050781e+00,1.290987396240234375e+01,2.339179813861846924e-01
-6.086786270141601562e+00,1.398563194274902344e+01,2.576485872268676758e-01
-1.143220043182373047e+01,2.361812400817871094e+01,4.432127475738525391e-01
-1.237466812133789062e+01,2.313826370239257812e+01,4.432078599929809570e-01
-1.329706573486328125e+01,2.262089538574218750e+01,4.432127475738525391e-01
-1.419778919219970703e+01,2.206660652160644531e+01,4.432078599929809570e-01
-1.507546424865722656e+01,2.147655868530273438e+01,4.432078599929809570e-01
-1.592866325378417969e+01,2.085160636901855469e+01,4.432078599929809570e-01
-1.675604820251464844e+01,2.019285964965820312e+01,4.432078599929809570e-01
-1.755615234375000000e+01,1.950124931335449219e+01,4.432078599929809570e-01
-1.832767677307128906e+01,1.877786636352539062e+01,4.432078599929809570e-01
-1.906947708129882812e+01,1.802407836914062500e+01,4.432078599929809570e-01
-1.978031539916992188e+01,1.724098014831542969e+01,4.432078599929809570e-01
-1.427204036712646484e+01,1.146137046813964844e+01,3.091984391212463379e-01
-2.110446548461914062e+01,1.559210395812988281e+01,4.432127475738525391e-01
-2.171570396423339844e+01,1.472903823852539062e+01,4.432078599929809570e-01
-2.229160881042480469e+01,1.384199619293212891e+01,4.432127475738525391e-01
-2.283131790161132812e+01,1.293245983123779297e+01,4.432078599929809570e-01
-2.333380889892578125e+01,1.200188541412353516e+01,4.432127475738525391e-01
-2.379851150512695312e+01,1.105182838439941406e+01,4.432078599929809570e-01
-2.422452926635742188e+01,1.008386039733886719e+01,4.432078599929809570e-01
-2.461121749877929688e+01,9.099487304687500000e+00,4.432078599929809570e-01
-2.495790481567382812e+01,8.100337028503417969e+00,4.432078599929809570e-01
-2.526404762268066406e+01,7.088017463684082031e+00,4.432078599929809570e-01
-2.421228790283203125e+01,5.751376152038574219e+00,4.203720688819885254e-01
-2.493267440795898438e+01,4.870314598083496094e+00,4.291202723979949951e-01
-2.326711463928222656e+01,3.578402996063232422e+00,3.976470828056335449e-01
-2.607415390014648438e+01,2.940341472625732422e+00,4.432127475738525391e-01
-2.617145919799804688e+01,1.887226581573486328e+00,4.432078599929809570e-01
-2.622635841369628906e+01,8.310441970825195312e-01,4.432127475738525391e-01
-2.623853302001953125e+01,-2.264752388000488281e-01,4.432078599929809570e-01
-2.620809936523437500e+01,-1.283620834350585938e+00,4.432127475738525391e-01
-2.613508415222167969e+01,-2.338676929473876953e+00,4.432078599929809570e-01
-1.308372879028320312e+01,-1.704624891281127930e+00,2.228788733482360840e-01
-2.586178588867187500e+01,-4.435693740844726562e+00,4.432078599929809570e-01
-2.566211891174316406e+01,-5.474270343780517578e+00,4.432078599929809570e-01
-1.632994461059570312e+01,-4.178074836730957031e+00,2.847276329994201660e-01
-1.556200027465820312e+01,-4.657249450683593750e+00,2.743901014328002930e-01
-2.481431579589843750e+01,-8.529902458190917969e+00,4.432078599929809570e-01
-2.445038414001464844e+01,-9.522897720336914062e+00,4.432127475738525391e-01
-2.404681968688964844e+01,-1.050047111511230469e+01,4.432078599929809570e-01
-2.360411071777343750e+01,-1.146092319488525391e+01,4.432127475738525391e-01
-2.312302970886230469e+01,-1.240278911590576172e+01,4.432127475738525391e-01
-2.260449218750000000e+01,-1.332453632354736328e+01,4.432127475738525391e-01
-2.204920196533203125e+01,-1.422460365295410156e+01,4.432127475738525391e-01
-2.145806884765625000e+01,-1.510150623321533203e+01,4.432078599929809570e-01
-2.083205032348632812e+01,-1.595398712158203125e+01,4.432127475738525391e-01
-2.017226982116699219e+01,-1.678049659729003906e+01,4.432127475738525391e-01
-1.947965049743652344e+01,-1.757973480224609375e+01,4.432127475738525391e-01
-1.875543212890625000e+01,-1.835041427612304688e+01,4.432103037834167480e-01
-1.800069046020507812e+01,-1.909131240844726562e+01,4.432127475738525391e-01
-1.721675682067871094e+01,-1.980116653442382812e+01,4.432127475738525391e-01
-1.640482330322265625e+01,-2.047887420654296875e+01,4.432127475738525391e-01
-1.556624889373779297e+01,-2.112331199645996094e+01,4.432127475738525391e-01
-1.470239543914794922e+01,-2.173340988159179688e+01,4.432127475738525391e-01
-1.381468391418457031e+01,-2.230820465087890625e+01,4.432127475738525391e-01
-1.290446567535400391e+01,-2.284677124023437500e+01,4.432127475738525391e-01
-1.197332763671875000e+01,-2.334821891784667969e+01,4.432127475738525391e-01
-1.102273845672607422e+01,-2.381171607971191406e+01,4.432127475738525391e-01
-1.005421066284179688e+01,-2.423659324645996094e+01,4.432127475738525391e-01
-9.069369316101074219e+00,-2.462200927734375000e+01,4.432151913642883301e-01
-8.069813728332519531e+00,-2.496752548217773438e+01,4.432127475738525391e-01
-7.057157516479492188e+00,-2.527237510681152344e+01,4.432151913642883301e-01
-1.713596343994140625e+00,-7.253257751464843750e+00,1.258943080902099609e-01
-1.241906404495239258e+00,-6.399255752563476562e+00,1.101122796535491943e-01
-9.170783758163452148e-01,-6.011765480041503906e+00,1.027247905731201172e-01
-6.326564550399780273e-01,-5.672475814819335938e+00,9.641289710998535156e-02
-3.807790279388427734e-01,-5.372009277343750000e+00,9.097099304199218750e-02
-1.579718589782714844e-01,-5.185195922851562500e+00,8.762845396995544434e-02
5.281662940979003906e-02,-5.361896991729736328e+00,9.057712554931640625e-02
2.786784172058105469e-01,-5.551233768463134766e+00,9.388902783393859863e-02
2.370524406433105469e+00,-2.613191223144531250e+01,4.432151913642883301e-01
3.421622276306152344e+00,-2.601507759094238281e+01,4.432151913642883301e-01
4.467185974121093750e+00,-2.585606002807617188e+01,4.432151913642883301e-01
5.505491256713867188e+00,-2.565504074096679688e+01,4.432163834571838379e-01
6.534851551055908203e+00,-2.541242980957031250e+01,4.432151913642883301e-01
7.553566932678222656e+00,-2.512846374511718750e+01,4.432151913642883301e-01
8.560031890869140625e+00,-2.480357742309570312e+01,4.432163834571838379e-01
9.552606582641601562e+00,-2.443847274780273438e+01,4.432151913642883301e-01
1.052963829040527344e+01,-2.403368759155273438e+01,4.432163834571838379e-01
1.148957252502441406e+01,-2.358985137939453125e+01,4.432163834571838379e-01
1.243085861206054688e+01,-2.310769271850585938e+01,4.432163834571838379e-01
1.335192298889160156e+01,-2.258799743652343750e+01,4.432163834571838379e-01
1.425129699707031250e+01,-2.203161048889160156e+01,4.432163834571838379e-01
1.208378219604492188e+01,-1.712567520141601562e+01,3.540484309196472168e-01
1.261410713195800781e+01,-1.642945861816406250e+01,3.498879671096801758e-01
1.348237228393554688e+01,-1.616736984252929688e+01,3.555967807769775391e-01
1.760325622558593750e+01,-1.945795440673828125e+01,4.432157874107360840e-01
1.837307548522949219e+01,-1.873278427124023438e+01,4.432163834571838379e-01
1.911301422119140625e+01,-1.797719955444335938e+01,4.432163834571838379e-01
1.982191658020019531e+01,-1.719239807128906250e+01,4.432163834571838379e-01
2.049861717224121094e+01,-1.637966918945312500e+01,4.432163834571838379e-01
2.114217758178710938e+01,-1.554042053222656250e+01,4.432163834571838379e-01
7.891251564025878906e+00,-6.912134170532226562e+00,4.432127475738525391e-01
8.163394927978515625e+00,-6.588536262512207031e+00,4.432127475738525391e-01
8.422272682189941406e+00,-6.254234313964843750e+00,4.432151913642883301e-01
8.667432785034179688e+00,-5.909739017486572266e+00,4.432151913642883301e-01
8.898553848266601562e+00,-5.555674552917480469e+00,4.432151913642883301e-01
9.115211486816406250e+00,-5.192571163177490234e+00,4.432151913642883301e-01
9.317047119140625000e+00,-4.821044921875000000e+00,4.432151913642883301e-01
9.503743171691894531e+00,-4.441666126251220703e+00,4.432151913642883301e-01
9.675009727478027344e+00,-4.055087566375732422e+00,4.432151913642883301e-01
9.830554962158203125e+00,-3.661920070648193359e+00,4.432151913642883301e-01
9.970117568969726562e+00,-3.262783050537109375e+00,4.432127475738525391e-01
1.009352970123291016e+01,-2.858377933502197266e+00,4.432127475738525391e-01
1.020051765441894531e+01,-2.449314117431640625e+00,4.432151913642883301e-01
1.029094123840332031e+01,-2.036282300949096680e+00,4.432127475738525391e-01
8.031248092651367188e+00,-1.255242586135864258e+00,3.434467315673828125e-01
8.075311660766601562e+00,-9.305768013000488281e-01,3.434467315673828125e-01
7.120863914489746094e+00,-5.309450626373291016e-01,3.016979098320007324e-01
7.109115600585937500e+00,-2.426216602325439453e-01,3.005415201187133789e-01
8.128602981567382812e+00,5.034375190734863281e-02,3.434467315673828125e-01
8.119959831237792969e+00,3.778572082519531250e-01,3.434467315673828125e-01
8.098139762878417969e+00,7.047586441040039062e-01,3.434467315673828125e-01
8.063173294067382812e+00,1.030514359474182129e+00,3.434467315673828125e-01
8.015096664428710938e+00,1.354596495628356934e+00,3.434467315673828125e-01
1.026493549346923828e+01,2.163586139678955078e+00,4.432127475738525391e-01
1.016941165924072266e+01,2.575479507446289062e+00,4.432127475738525391e-01
1.005736160278320312e+01,2.983194828033447266e+00,4.432127475738525391e-01
9.928975105285644531e+00,3.386050224304199219e+00,4.432127475738525391e-01
9.784472465515136719e+00,3.783409357070922852e+00,4.432127475738525391e-01
9.624078750610351562e+00,4.174616813659667969e+00,4.432151913642883301e-01
9.448019027709960938e+00,4.559057235717773438e+00,4.432127475738525391e-01
9.256635665893554688e+00,4.936072826385498047e+00,4.432127475738525391e-01
9.050201416015625000e+00,5.305087089538574219e+00,4.432127475738525391e-01
8.829081535339355469e+00,5.665487289428710938e+00,4.432127475738525391e-01
8.593601226806640625e+00,6.016669750213623047e+00,4.432127475738525391e-01
8.344170570373535156e+00,6.358072280883789062e+00,4.432127475738525391e-01
8.081192016601562500e+00,6.689158916473388672e+00,4.432127475738525391e-01
7.805062294006347656e+00,7.009377479553222656e+00,4.432127475738525391e-01
7.516272068023681641e+00,7.318198204040527344e+00,4.432127475738525391e-01
7.215262413024902344e+00,7.615150451660156250e+00,4.432127475738525391e-01
6.902535438537597656e+00,7.899715900421142578e+00,4.432127475738525391e-01
6.578594207763671875e+00,8.171451568603515625e+00,4.432127475738525391e-01
6.243958950042724609e+00,8.429929733276367188e+00,4.432103037834167480e-01
5.899179458618164062e+00,8.674692153930664062e+00,4.432127475738525391e-01
5.544835090637207031e+00,8.905361175537109375e+00,4.432151913642883301e-01
5.181466579437255859e+00,9.121582031250000000e+00,4.432127475738525391e-01
4.809682369232177734e+00,9.322968482971191406e+00,4.432103037834167480e-01
4.430083274841308594e+00,9.509211540222167969e+00,4.432127475738525391e-01
4.043291091918945312e+00,9.680009841918945312e+00,4.432103037834167480e-01
3.649938821792602539e+00,9.835073471069335938e+00,4.432127475738525391e-01
3.250652313232421875e+00,9.974175453186035156e+00,4.432127475738525391e-01
2.846076965332031250e+00,1.009706211090087891e+01,4.432127475738525391e-01
2.436883211135864258e+00,1.020356178283691406e+01,4.432103037834167480e-01
2.023726701736450195e+00,1.029348182678222656e+01,4.432127475738525391e-01
1.607287883758544922e+00,1.036666011810302734e+01,4.432127475738525391e-01
1.188230276107788086e+00,1.042301082611083984e+01,4.432127475738525391e-01
7.672495841979980469e-01,1.046243476867675781e+01,4.432127475738525391e-01
3.450207710266113281e-01,1.048483657836914062e+01,4.432127475738525391e-01
-7.777667045593261719e-02,1.049024200439453125e+01,4.432127475738525391e-01
-5.004265308380126953e-01,1.047858047485351562e+01,4.432127475738525391e-01
-9.222908020019531250e-01,1.044992256164550781e+01,4.432127475738525391e-01
-1.342618942260742188e+00,1.040423870086669922e+01,4.432127475738525391e-01
-1.760797500610351562e+00,1.034169006347656250e+01,4.432127475738525391e-01
-2.176095724105834961e+00,1.026234054565429688e+01,4.432127475738525391e-01
-2.587862253189086914e+00,1.016630172729492188e+01,4.432127475738525391e-01
-2.995463848114013672e+00,1.005375957489013672e+01,4.432127475738525391e-01
-3.398166179656982422e+00,9.924925804138183594e+00,4.432127475738525391e-01
-3.795368194580078125e+00,9.779922485351562500e+00,4.432127475738525391e-01
-4.186373710632324219e+00,9.619032859802246094e+00,4.432127475738525391e-01
-4.570606231689453125e+00,9.442520141601562500e+00,4.432127475738525391e-01
-4.947380065917968750e+00,9.250652313232421875e+00,4.432127475738525391e-01
-5.316143989562988281e+00,9.043781280517578125e+00,4.432078599929809570e-01
-5.676278591156005859e+00,8.822216987609863281e+00,4.432127475738525391e-01
-6.027174949645996094e+00,8.586329460144042969e+00,4.432127475738525391e-01
-6.368257522583007812e+00,8.336450576782226562e+00,4.432127475738525391e-01
-6.699036121368408203e+00,8.073066711425781250e+00,4.432127475738525391e-01
-7.018918514251708984e+00,7.796555519104003906e+00,4.432127475738525391e-01
-7.327396869659423828e+00,7.507377624511718750e+00,4.432127475738525391e-01
-7.623983383178710938e+00,7.206021308898925781e+00,4.432078599929809570e-01
-7.908175945281982422e+00,6.892942428588867188e+00,4.432127475738525391e-01
-8.179496765136718750e+00,6.568663597106933594e+00,4.432078599929809570e-01
-8.437547683715820312e+00,6.233708381652832031e+00,4.432127475738525391e-01
-8.681911468505859375e+00,5.888644218444824219e+00,4.432127475738525391e-01
-8.912130355834960938e+00,5.533992767333984375e+00,4.432127475738525391e-01
-9.127928733825683594e+00,5.170369148254394531e+00,4.432127475738525391e-01
-9.328843116760253906e+00,4.798350334167480469e+00,4.432127475738525391e-01
-9.514627456665039062e+00,4.418515205383300781e+00,4.432127475738525391e-01
-9.684943199157714844e+00,4.031527519226074219e+00,4.432127475738525391e-01
-9.839539527893066406e+00,3.637972831726074219e+00,4.432127475738525391e-01
-9.978158950805664062e+00,3.238512277603149414e+00,4.432078599929809570e-01
-1.010054683685302734e+01,2.833785295486450195e+00,4.432078599929809570e-01
-1.020653152465820312e+01,2.424469470977783203e+00,4.432078599929809570e-01
-1.029592609405517578e+01,2.011191129684448242e+00,4.432127475738525391e-01
-1.036861515045166016e+01,1.594660520553588867e+00,4.432127475738525391e-01
-1.042447280883789062e+01,1.175548553466796875e+00,4.432127475738525391e-01
-1.046337890625000000e+01,7.545206546783447266e-01,4.432127475738525391e-01
-1.048526763916015625e+01,3.322503566741943359e-01,4.432127475738525391e-01
-1.049014282226562500e+01,-9.053301811218261719e-02,4.432127475738525391e-01
-1.047797203063964844e+01,-5.131916999816894531e-01,4.432127475738525391e-01
-1.044876289367675781e+01,-9.350018501281738281e-01,4.432127475738525391e-01
-1.040261459350585938e+01,-1.355300664901733398e+00,4.432127475738525391e-01
-1.033955383300781250e+01,-1.773379802703857422e+00,4.432127475738525391e-01
-1.025970268249511719e+01,-2.188601493835449219e+00,4.432127475738525391e-01
-1.016316795349121094e+01,-2.600264787673950195e+00,4.432127475738525391e-01
-1.005010604858398438e+01,-3.007695436477661133e+00,4.432127475738525391e-01
-9.920753479003906250e+00,-3.410254955291748047e+00,4.432127475738525391e-01
-9.775270462036132812e+00,-3.807251930236816406e+00,4.432127475738525391e-01
-9.613897323608398438e+00,-4.198075294494628906e+00,4.432103037834167480e-01
-9.436929702758789062e+00,-4.582072257995605469e+00,4.432127475738525391e-01
-9.244615554809570312e+00,-4.958643436431884766e+00,4.432127475738525391e-01
-9.037279129028320312e+00,-5.327150821685791016e+00,4.432127475738525391e-01
-8.815274238586425781e+00,-5.686996936798095703e+00,4.432127475738525391e-01
-8.578947067260742188e+00,-6.037594795227050781e+00,4.432127475738525391e-01
-8.328663825988769531e+00,-6.378408432006835938e+00,4.432127475738525391e-01
-8.064881324768066406e+00,-6.708845138549804688e+00,4.432127475738525391e-01
-7.787977695465087891e+00,-7.028378486633300781e+00,4.432127475738525391e-01
-7.498425483703613281e+00,-7.336503505706787109e+00,4.432127475738525391e-01
-7.196691513061523438e+00,-7.632710456848144531e+00,4.432127475738525391e-01
-6.883267402648925781e+00,-7.916515827178955078e+00,4.432151913642883301e-01
-6.558652877807617188e+00,-8.187470436096191406e+00,4.432127475738525391e-01
-6.223404884338378906e+00,-8.445099830627441406e+00,4.432103037834167480e-01
-5.878026485443115234e+00,-8.689029693603515625e+00,4.432127475738525391e-01
-5.523126125335693359e+00,-8.918821334838867188e+00,4.432151913642883301e-01
-5.159234046936035156e+00,-9.134157180786132812e+00,4.432151913642883301e-01
-4.786961555480957031e+00,-9.334629058837890625e+00,4.432127475738525391e-01
-4.406900405883789062e+00,-9.519964218139648438e+00,4.432127475738525391e-01
-4.019693374633789062e+00,-9.689816474914550781e+00,4.432127475738525391e-01
-3.625949144363403320e+00,-9.843914031982421875e+00,4.432127475738525391e-01
-3.226321458816528320e+00,-9.982037544250488281e+00,4.432127475738525391e-01
-2.821465730667114258e+00,-1.010392475128173828e+01,4.432127475738525391e-01
-1.713596343994140625e+00,-7.253257751464843750e+00,3.148925304412841797e-01
-1.241906404495239258e+00,-6.399255752563476562e+00,2.754179537296295166e-01
-9.170783758163452148e-01,-6.011765480041503906e+00,2.569400370121002197e-01
-6.326612234115600586e-01,-5.672481536865234375e+00,2.411525547504425049e-01
-3.807790279388427734e-01,-5.372009277343750000e+00,2.275409400463104248e-01
-1.579718589782714844e-01,-5.185195922851562500e+00,2.191803753376007080e-01
5.281662940979003906e-02,-5.361896991729736328e+00,2.265557497739791870e-01
2.786784172058105469e-01,-5.551233768463134766e+00,2.348395735025405884e-01
9.477262496948242188e-01,-1.044756126403808594e+01,4.432127475738525391e-01
1.367967128753662109e+00,-1.040088844299316406e+01,4.432127475738525391e-01
1.785985708236694336e+00,-1.033731842041015625e+01,4.432127475738525391e-01
2.201113700866699219e+00,-1.025696086883544922e+01,4.432151913642883301e-01
2.612639188766479492e+00,-1.015990447998046875e+01,4.432151913642883301e-01
3.019927024841308594e+00,-1.004638195037841797e+01,4.432151913642883301e-01
3.422318458557128906e+00,-9.916541099548339844e+00,4.432151913642883301e-01
3.819135665893554688e+00,-9.770546913146972656e+00,4.432127475738525391e-01
4.209755897521972656e+00,-9.608716964721679688e+00,4.432151913642883301e-01
4.593542575836181641e+00,-9.431262969970703125e+00,4.432127475738525391e-01
4.969867229461669922e+00,-9.238483428955078125e+00,4.432127475738525391e-01
5.338127136230468750e+00,-9.030739784240722656e+00,4.432151913642883301e-01
5.697707176208496094e+00,-8.808294296264648438e+00,4.432127475738525391e-01
6.048011302947998047e+00,-8.571520805358886719e+00,4.432151913642883301e-01
6.388525009155273438e+00,-8.320846557617187500e+00,4.432127475738525391e-01
6.718615531921386719e+00,-8.056646347045898438e+00,4.432151913642883301e-01
7.037845611572265625e+00,-7.779368400573730469e+00,4.432127475738525391e-01
7.345623493194580078e+00,-7.489435195922851562e+00,4.432151913642883301e-01
7.641436100006103516e+00,-7.187339782714843750e+00,4.432151913642883301e-01
7.924864768981933594e+00,-6.873580932617187500e+00,4.432151913642883301e-01
8.195418357849121094e+00,-6.548648834228515625e+00,4.432151913642883301e-01
8.452654838562011719e+00,-6.213073253631591797e+00,4.432127475738525391e-01
4.927453517913818359e+00,-4.316081047058105469e+00,4.432127475738525391e-01
5.097383499145507812e+00,-4.114010810852050781e+00,4.432127475738525391e-01
5.259018898010253906e+00,-3.905257225036621094e+00,4.432127475738525391e-01
5.412137031555175781e+00,-3.690179824829101562e+00,4.432127475738525391e-01
5.556445121765136719e+00,-3.469080924987792969e+00,4.432151913642883301e-01
5.691721916198730469e+00,-3.242342233657836914e+00,4.432151913642883301e-01
5.817757606506347656e+00,-3.010356903076171875e+00,4.432127475738525391e-01
5.934346199035644531e+00,-2.773467540740966797e+00,4.432127475738525391e-01
6.041283130645751953e+00,-2.532081842422485352e+00,4.432151913642883301e-01
6.138412952423095703e+00,-2.286576032638549805e+00,4.432127475738525391e-01
6.225560188293457031e+00,-2.037351369857788086e+00,4.432127475738525391e-01
6.302608489990234375e+00,-1.784828424453735352e+00,4.432127475738525391e-01
6.369421005249023438e+00,-1.529409408569335938e+00,4.432151913642883301e-01
6.425877094268798828e+00,-1.271500587463378906e+00,4.432127475738525391e-01
6.471887588500976562e+00,-1.011515617370605469e+00,4.432151913642883301e-01
6.507393836975097656e+00,-7.498829364776611328e-01,4.432151913642883301e-01
6.455565452575683594e+00,-4.813425540924072266e-01,4.380218088626861572e-01
6.546641826629638672e+00,-2.234153747558593750e-01,4.432127475738525391e-01
6.550334453582763672e+00,4.057478904724121094e-02,4.432151913642883301e-01
6.543375968933105469e+00,3.044946193695068359e-01,4.432127475738525391e-01
6.525795459747314453e+00,5.679292678833007812e-01,4.432127475738525391e-01
6.497606277465820312e+00,8.304419517517089844e-01,4.432127475738525391e-01
6.458878993988037109e+00,1.091593861579895020e+00,4.432151913642883301e-01
6.409632682800292969e+00,1.350981235504150391e+00,4.432127475738525391e-01
6.349990844726562500e+00,1.608181834220886230e+00,4.432127475738525391e-01
6.280014038085937500e+00,1.862766623497009277e+00,4.432127475738525391e-01
6.199867248535156250e+00,2.114317893981933594e+00,4.432127475738525391e-01
6.109613418579101562e+00,2.362434864044189453e+00,4.432127475738525391e-01
6.009456634521484375e+00,2.606718301773071289e+00,4.432127475738525391e-01
5.899539470672607422e+00,2.846768617630004883e+00,4.432151913642883301e-01
5.780034065246582031e+00,3.082174301147460938e+00,4.432127475738525391e-01
5.651124954223632812e+00,3.312609910964965820e+00,4.432127475738525391e-01
5.513046264648437500e+00,3.537640810012817383e+00,4.432127475738525391e-01
5.366016864776611328e+00,3.756933927536010742e+00,4.432127475738525391e-01
5.210263729095458984e+00,3.970120668411254883e+00,4.432127475738525391e-01
5.046051025390625000e+00,4.176849365234375000e+00,4.432127475738525391e-01
4.873640060424804688e+00,4.376791000366210938e+00,4.432127475738525391e-01
4.693296432495117188e+00,4.569644927978515625e+00,4.432127475738525391e-01
4.505353927612304688e+00,4.755049705505371094e+00,4.432127475738525391e-01
4.310074806213378906e+00,4.932747364044189453e+00,4.432127475738525391e-01
4.107794761657714844e+00,5.102425575256347656e+00,4.432151913642883301e-01
3.898850440979003906e+00,5.263822555541992188e+00,4.432127475738525391e-01
3.683559894561767578e+00,5.416650772094726562e+00,4.432127475738525391e-01
3.462300300598144531e+00,5.560695171356201172e+00,4.432103037834167480e-01
3.235408067703247070e+00,5.695693016052246094e+00,4.432151913642883301e-01
3.003257036209106445e+00,5.821449756622314453e+00,4.432127475738525391e-01
2.766237020492553711e+00,5.937738895416259766e+00,4.432103037834167480e-01
2.524708032608032227e+00,6.044398307800292969e+00,4.432127475738525391e-01
2.279088973999023438e+00,6.141214847564697266e+00,4.432103037834167480e-01
2.029781103134155273e+00,6.228072166442871094e+00,4.432127475738525391e-01
1.777145147323608398e+00,6.304808139801025391e+00,4.432127475738525391e-01
1.521628379821777344e+00,6.371314525604248047e+00,4.432127475738525391e-01
1.263650417327880859e+00,6.427450656890869141e+00,4.432127475738525391e-01
1.003612041473388672e+00,6.473147392272949219e+00,4.432103037834167480e-01
7.419524192810058594e-01,6.508337020874023438e+00,4.432103037834167480e-01
4.790947437286376953e-01,6.532952308654785156e+00,4.432127475738525391e-01
2.154384851455688477e-01,6.546947479248046875e+00,4.432127475738525391e-01
-4.855477809906005859e-02,6.550304412841796875e+00,4.432127475738525391e-01
-3.124861717224121094e-01,6.543046951293945312e+00,4.432127475738525391e-01
-5.758917331695556641e-01,6.525133132934570312e+00,4.432127475738525391e-01
-8.383815288543701172e-01,6.496626377105712891e+00,4.432103037834167480e-01
-1.099482774734497070e+00,6.457568168640136719e+00,4.432127475738525391e-01
-1.358822464942932129e+00,6.408021926879882812e+00,4.432127475738525391e-01
-1.615923762321472168e+00,6.348058223724365234e+00,4.432127475738525391e-01
-1.870434284210205078e+00,6.277790069580078125e+00,4.432127475738525391e-01
-2.121892452239990234e+00,6.197316169738769531e+00,4.432127475738525391e-01
-2.369890689849853516e+00,6.106764793395996094e+00,4.432127475738525391e-01
-2.614061832427978516e+00,6.006314277648925781e+00,4.432127475738525391e-01
-2.853984355926513672e+00,5.896110534667968750e+00,4.432127475738525391e-01
-3.089250326156616211e+00,5.776308059692382812e+00,4.432127475738525391e-01
-3.319503545761108398e+00,5.647117614746093750e+00,4.432127475738525391e-01
-3.544374704360961914e+00,5.508766174316406250e+00,4.432078599929809570e-01
-3.763482332229614258e+00,5.361471176147460938e+00,4.432127475738525391e-01
-3.976471662521362305e+00,5.205442905426025391e+00,4.432127475738525391e-01
-4.183010101318359375e+00,5.040981292724609375e+00,4.432127475738525391e-01
-4.382757663726806641e+00,4.868327617645263672e+00,4.432127475738525391e-01
-4.575368404388427734e+00,4.687750816345214844e+00,4.432127475738525391e-01
-4.760552406311035156e+00,4.499573230743408203e+00,4.432127475738525391e-01
-4.938021183013916016e+00,4.304092407226562500e+00,4.432127475738525391e-01
-5.107442855834960938e+00,4.101607322692871094e+00,4.432127475738525391e-01
-5.268577575683593750e+00,3.892453432083129883e+00,4.432078599929809570e-01
-5.421163558959960938e+00,3.676989078521728516e+00,4.432127475738525391e-01
-5.564909934997558594e+00,3.455538749694824219e+00,4.432127475738525391e-01
-5.699655055999755859e+00,3.228484630584716797e+00,4.432127475738525391e-01
-5.825121879577636719e+00,2.996181011199951172e+00,4.432127475738525391e-01
-5.941127300262451172e+00,2.759012460708618164e+00,4.432127475738525391e-01
-6.047467231750488281e+00,2.517365217208862305e+00,4.432127475738525391e-01
-6.144019126892089844e+00,2.271623373031616211e+00,4.432127475738525391e-01
-6.230550765991210938e+00,2.022181749343872070e+00,4.432127475738525391e-01
-6.306976795196533203e+00,1.769475460052490234e+00,4.432127475738525391e-01
-6.373174190521240234e+00,1.513888359069824219e+00,4.432127475738525391e-01
-6.428994655609130859e+00,1.255835056304931641e+00,4.432127475738525391e-01
-6.474366664886474609e+00,9.957332611083984375e-01,4.432127475738525391e-01
-6.509260654449462891e+00,7.340453863143920898e-01,4.432127475738525391e-01
-6.533535003662109375e+00,4.711313247680664062e-01,4.432127475738525391e-01
-6.547204971313476562e+00,2.074708938598632812e-01,4.432127475738525391e-01
-6.550252914428710938e+00,-5.653285980224609375e-02,4.432127475738525391e-01
-6.542661666870117188e+00,-3.204346895217895508e-01,4.432127475738525391e-01
-6.524424552917480469e+00,-5.838228464126586914e-01,4.432127475738525391e-01
-6.495590209960937500e+00,-8.462785482406616211e-01,4.432127475738525391e-01
-6.456227302551269531e+00,-1.107336759567260742e+00,4.432103037834167480e-01
-6.406352996826171875e+00,-1.366593241691589355e+00,4.432103037834167480e-01
-6.346079349517822266e+00,-1.623656630516052246e+00,4.432127475738525391e-01
-6.275501251220703125e+00,-1.878047943115234375e+00,4.432103037834167480e-01
-6.194709777832031250e+00,-2.129423856735229492e+00,4.432127475738525391e-01
-6.103874683380126953e+00,-2.377321004867553711e+00,4.432127475738525391e-01
-6.003122329711914062e+00,-2.621345996856689453e+00,4.432127475738525391e-01
-5.892601013183593750e+00,-2.861127853393554688e+00,4.432103037834167480e-01
-5.772517204284667969e+00,-3.096270799636840820e+00,4.432127475738525391e-01
-5.643069267272949219e+00,-3.326371669769287109e+00,4.432151913642883301e-01
-5.504434585571289062e+00,-3.551072120666503906e+00,4.432127475738525391e-01
-5.356864929199218750e+00,-3.769982337951660156e+00,4.432127475738525391e-01
-5.200591087341308594e+00,-3.982808589935302734e+00,4.432151913642883301e-01
-5.035877704620361328e+00,-4.189130783081054688e+00,4.432127475738525391e-01
-4.862977981567382812e+00,-4.388655662536621094e+00,4.432127475738525391e-01
-4.682170867919921875e+00,-4.581051826477050781e+00,4.432127475738525391e-01
-4.493762969970703125e+00,-4.766020298004150391e+00,4.432127475738525391e-01
-4.298055648803710938e+00,-4.943230628967285156e+00,4.432151913642883301e-01
-4.095358848571777344e+00,-5.112412452697753906e+00,4.432127475738525391e-01
-3.886009931564331055e+00,-5.273301601409912109e+00,4.432127475738525391e-01
-3.670371770858764648e+00,-5.425595760345458984e+00,4.432151913642883301e-01
-3.448753595352172852e+00,-5.569094657897949219e+00,4.432151913642883301e-01
-3.221545696258544922e+00,-5.703550338745117188e+00,4.432127475738525391e-01
-2.989077329635620117e+00,-5.828737258911132812e+00,4.432127475738525391e-01
-2.751771688461303711e+00,-5.944449424743652344e+00,4.432151913642883301e-01
-2.509981155395507812e+00,-6.050511360168457031e+00,4.432127475738525391e-01
-2.264120578765869141e+00,-6.146754264831542969e+00,4.432151913642883301e-01
-2.014586210250854492e+00,-6.232985496520996094e+00,4.432127475738525391e-01
-1.761787652969360352e+00,-6.309100151062011719e+00,4.432127475738525391e-01
-1.506115913391113281e+00,-6.374970436096191406e+00,4.432151913642883301e-01
-1.247997522354125977e+00,-6.430487632751464844e+00,4.432127475738525391e-01
-9.170783758163452148e-01,-6.011765480041503906e+00,4.114859700202941895e-01
-6.326612234115600586e-01,-5.672481536865234375e+00,3.862023651599884033e-01
-3.807790279388427734e-01,-5.372009277343750000e+00,3.644036650657653809e-01
-1.579718589782714844e-01,-5.185195922851562500e+00,3.510142564773559570e-01
5.281662940979003906e-02,-5.361896991729736328e+00,3.628257811069488525e-01
2.786784172058105469e-01,-5.551233768463134766e+00,3.760924339294433594e-01
5.917785167694091797e-01,-6.523687362670898438e+00,4.432151913642883301e-01
8.541898727416992188e-01,-6.494537830352783203e+00,4.432151913642883301e-01
1.115208387374877930e+00,-6.454841613769531250e+00,4.432127475738525391e-01
1.374414682388305664e+00,-6.404646396636962891e+00,4.432151913642883301e-01
1.631387352943420410e+00,-6.344077587127685547e+00,4.432127475738525391e-01
1.885707259178161621e+00,-6.273180961608886719e+00,4.432151913642883301e-01
2.136964559555053711e+00,-6.192090511322021484e+00,4.432127475738525391e-01
2.384747982025146484e+00,-6.100941658020019531e+00,4.432127475738525391e-01
2.628665685653686523e+00,-5.999890327453613281e+00,4.432127475738525391e-01
2.868313789367675781e+00,-5.889088153839111328e+00,4.432127475738525391e-01
3.103296756744384766e+00,-5.768720626831054688e+00,4.432151913642883301e-01
3.333236694335937500e+00,-5.638977527618408203e+00,4.432127475738525391e-01
3.557767391204833984e+00,-5.500082015991210938e+00,4.432151913642883301e-01
3.776497125625610352e+00,-5.352240562438964844e+00,4.432151913642883301e-01
3.989116191864013672e+00,-5.195703506469726562e+00,4.432127475738525391e-01
4.195258617401123047e+00,-5.030740737915039062e+00,4.432127475738525391e-01
4.394578456878662109e+00,-4.857599258422851562e+00,4.432151913642883301e-01
4.586764335632324219e+00,-4.676556110382080078e+00,4.432151913642883301e-01
4.771474361419677734e+00,-4.487922191619873047e+00,4.432151913642883301e-01
4.948450088500976562e+00,-4.292007923126220703e+00,4.432151913642883301e-01
5.117392063140869141e+00,-4.089120864868164062e+00,4.432151913642883301e-01
5.278004646301269531e+00,-3.879568576812744141e+00,4.432151913642883301e-01
3.578729391098022461e+00,-3.134699583053588867e+00,4.432127475738525391e-01
3.702152013778686523e+00,-2.987942218780517578e+00,4.432127475738525391e-01
3.819548368453979492e+00,-2.836332082748413086e+00,4.432127475738525391e-01
3.930733203887939453e+00,-2.680112361907958984e+00,4.432151913642883301e-01
4.035563468933105469e+00,-2.519550800323486328e+00,4.432151913642883301e-01
4.133808135986328125e+00,-2.354873180389404297e+00,4.432127475738525391e-01
4.225355148315429688e+00,-2.186381816864013672e+00,4.432127475738525391e-01
4.310012817382812500e+00,-2.014326095581054688e+00,4.432127475738525391e-01
4.387690544128417969e+00,-1.839007377624511719e+00,4.432127475738525391e-01
4.458232879638671875e+00,-1.660703778266906738e+00,4.432151913642883301e-01
4.521524429321289062e+00,-1.479696869850158691e+00,4.432127475738525391e-01
4.577488422393798828e+00,-1.296290874481201172e+00,4.432151913642883301e-01
4.626004219055175781e+00,-1.110772490501403809e+00,4.432151913642883301e-01
4.667019367218017578e+00,-9.234663248062133789e-01,4.432127475738525391e-01
4.700427055358886719e+00,-7.346413135528564453e-01,4.432127475738525391e-01
4.726208686828613281e+00,-5.446295738220214844e-01,4.432127475738525391e-01
4.744325160980224609e+00,-3.537379503250122070e-01,4.432127475738525391e-01
4.754726886749267578e+00,-1.622630357742309570e-01,4.432127475738525391e-01
4.757412433624267578e+00,2.945888042449951172e-02,4.432151913642883301e-01
4.752360820770263672e+00,2.211449146270751953e-01,4.432151913642883301e-01
4.739574432373046875e+00,4.124861955642700195e-01,4.432127475738525391e-01
4.719104290008544922e+00,6.031405925750732422e-01,4.432127475738525391e-01
4.690968513488769531e+00,7.928229570388793945e-01,4.432127475738525391e-01
4.655220985412597656e+00,9.811912775039672852e-01,4.432127475738525391e-01
4.611893653869628906e+00,1.167999029159545898e+00,4.432127475738525391e-01
4.561092853546142578e+00,1.352898597717285156e+00,4.432127475738525391e-01
4.502860069274902344e+00,1.535606145858764648e+00,4.432127475738525391e-01
4.437325000762939453e+00,1.715802907943725586e+00,4.432127475738525391e-01
4.364570617675781250e+00,1.893231272697448730e+00,4.432127475738525391e-01
4.284740447998046875e+00,2.067561626434326172e+00,4.432127475738525391e-01
4.197947025299072266e+00,2.238550186157226562e+00,4.432103037834167480e-01
4.104319572448730469e+00,2.405899286270141602e+00,4.432127475738525391e-01
4.004045009613037109e+00,2.569333314895629883e+00,4.432127475738525391e-01
3.897248506546020508e+00,2.728597640991210938e+00,4.432151913642883301e-01
3.784143447875976562e+00,2.883423805236816406e+00,4.432127475738525391e-01
3.664858341217041016e+00,3.033584833145141602e+00,4.432127475738525391e-01
3.539655208587646484e+00,3.178800821304321289e+00,4.432127475738525391e-01
3.408677101135253906e+00,3.318862199783325195e+00,4.432127475738525391e-01
3.272157907485961914e+00,3.453524351119995117e+00,4.432151913642883301e-01
3.130337238311767578e+00,3.582575321197509766e+00,4.432127475738525391e-01
2.983411312103271484e+00,3.705820798873901367e+00,4.432103037834167480e-01
2.831670999526977539e+00,3.823037624359130859e+00,4.432103037834167480e-01
2.675316333770751953e+00,3.934037685394287109e+00,4.432127475738525391e-01
2.514616966247558594e+00,4.038644313812255859e+00,4.432127475738525391e-01
2.349820137023925781e+00,4.136700630187988281e+00,4.432127475738525391e-01
2.181213378906250000e+00,4.228024959564208984e+00,4.432127475738525391e-01
2.009054660797119141e+00,4.312500953674316406e+00,4.432103037834167480e-01
1.833653092384338379e+00,4.389949321746826172e+00,4.432103037834167480e-01
1.655282378196716309e+00,4.460268974304199219e+00,4.432127475738525391e-01
1.474174261093139648e+00,4.523355960845947266e+00,4.432103037834167480e-01
1.290702104568481445e+00,4.579087257385253906e+00,4.432127475738525391e-01
1.105144858360290527e+00,4.627366542816162109e+00,4.432127475738525391e-01
9.177783727645874023e-01,4.668143749237060547e+00,4.432127475738525391e-01
7.289057970046997070e-01,4.701352596282958984e+00,4.432103037834167480e-01
5.388711690902709961e-01,4.726904392242431641e+00,4.432127475738525391e-01
3.479523658752441406e-01,4.744774818420410156e+00,4.432127475738525391e-01
1.564592123031616211e-01,4.754952907562255859e+00,4.432127475738525391e-01
-3.528499603271484375e-02,4.757397651672363281e+00,4.432103037834167480e-01
-2.269541025161743164e-01,4.752093315124511719e+00,4.432127475738525391e-01
-4.182605743408203125e-01,4.739099025726318359e+00,4.432127475738525391e-01
-6.088954210281372070e-01,4.718402385711669922e+00,4.432103037834167480e-01
-7.985403537750244141e-01,4.690026760101318359e+00,4.432127475738525391e-01
-9.868935346603393555e-01,4.654047966003417969e+00,4.432127475738525391e-01
-1.173616290092468262e+00,4.610489845275878906e+00,4.432127475738525391e-01
-1.358479142189025879e+00,4.559459209442138672e+00,4.432127475738525391e-01
-1.541090726852416992e+00,4.500996589660644531e+00,4.432103037834167480e-01
-1.721209049224853516e+00,4.435246467590332031e+00,4.432103037834167480e-01
-1.898548841476440430e+00,4.362288475036621094e+00,4.432127475738525391e-01
-2.072802066802978516e+00,4.282253742218017578e+00,4.432103037834167480e-01
-2.243668079376220703e+00,4.195238113403320312e+00,4.432127475738525391e-01
-2.410902738571166992e+00,4.101415157318115234e+00,4.432127475738525391e-01
-2.574220657348632812e+00,4.000934600830078125e+00,4.432127475738525391e-01
-2.733354568481445312e+00,3.893949031829833984e+00,4.432127475738525391e-01
-2.888059139251708984e+00,3.780632734298706055e+00,4.432127475738525391e-01
-3.038060665130615234e+00,3.661193370819091797e+00,4.432127475738525391e-01
-3.183128833770751953e+00,3.535786151885986328e+00,4.432127475738525391e-01
-3.323024749755859375e+00,3.404650211334228516e+00,4.432127475738525391e-01
-3.457522153854370117e+00,3.267982482910156250e+00,4.432103037834167480e-01
-3.586406469345092773e+00,3.125992774963378906e+00,4.432127475738525391e-01
-3.709461688995361328e+00,2.978937625885009766e+00,4.432103037834167480e-01
-3.826473951339721680e+00,2.827025413513183594e+00,4.432127475738525391e-01
-3.937300682067871094e+00,2.670544624328613281e+00,4.432127475738525391e-01
-4.041717052459716797e+00,2.509716510772705078e+00,4.432103037834167480e-01
-4.139567375183105469e+00,2.344796895980834961e+00,4.432103037834167480e-01
-4.230698585510253906e+00,2.176087617874145508e+00,4.432127475738525391e-01
-4.314960956573486328e+00,2.003839492797851562e+00,4.432127475738525391e-01
-4.392199516296386719e+00,1.828331947326660156e+00,4.432127475738525391e-01
-4.462303161621093750e+00,1.649839401245117188e+00,4.432127475738525391e-01
-4.525158882141113281e+00,1.468686580657958984e+00,4.432127475738525391e-01
-4.580677986145019531e+00,1.285146594047546387e+00,4.432103037834167480e-01
-4.628722667694091797e+00,1.099501729011535645e+00,4.432127475738525391e-01
-4.669284820556640625e+00,9.120944738388061523e-01,4.432127475738525391e-01
-4.702241897583007812e+00,7.231903076171875000e-01,4.432127475738525391e-01
-4.727563858032226562e+00,5.331320762634277344e-01,4.432103037834167480e-01
-4.745197772979736328e+00,3.421746492385864258e-01,4.432127475738525391e-01
-4.755149841308593750e+00,1.506906747817993164e-01,4.432127475738525391e-01
-4.757350921630859375e+00,-4.104828834533691406e-02,4.432127475738525391e-01
-4.751828193664550781e+00,-2.327417135238647461e-01,4.432127475738525391e-01
-4.738592147827148438e+00,-4.240217208862304688e-01,4.432127475738525391e-01
-4.717648506164550781e+00,-6.146346330642700195e-01,4.432127475738525391e-01
-4.689054489135742188e+00,-8.042440414428710938e-01,4.432127475738525391e-01
-4.652831077575683594e+00,-9.925435781478881836e-01,4.432127475738525391e-01
-4.609052658081054688e+00,-1.179241180419921875e+00,4.432127475738525391e-01
-4.557786941528320312e+00,-1.364012956619262695e+00,4.432127475738525391e-01
-4.499111175537109375e+00,-1.546573400497436523e+00,4.432127475738525391e-01
-4.433157920837402344e+00,-1.726603269577026367e+00,4.432127475738525391e-01
-4.359975337982177734e+00,-1.903853058815002441e+00,4.432103037834167480e-01
-4.279723167419433594e+00,-2.077989339828491211e+00,4.432127475738525391e-01
-4.192498207092285156e+00,-2.248772144317626953e+00,4.432127475738525391e-01
-4.098474979400634766e+00,-2.415885925292968750e+00,4.432127475738525391e-01
-3.997782707214355469e+00,-2.579082727432250977e+00,4.432127475738525391e-01
-3.890625000000000000e+00,-2.738082408905029297e+00,4.432127475738525391e-01
-3.777115821838378906e+00,-2.892640113830566406e+00,4.432103037834167480e-01
-3.657482147216796875e+00,-3.042505502700805664e+00,4.432127475738525391e-01
-3.531916618347167969e+00,-3.187408208847045898e+00,4.432127475738525391e-01
-3.400588750839233398e+00,-3.327146053314208984e+00,4.432127475738525391e-01
-3.263740062713623047e+00,-3.461486577987670898e+00,4.432127475738525391e-01
-3.121608734130859375e+00,-3.590190887451171875e+00,4.432127475738525391e-01
-2.974395990371704102e+00,-3.713069915771484375e+00,4.432127475738525391e-01
-2.822363376617431641e+00,-3.829914093017578125e+00,4.432127475738525391e-01
-2.665727615356445312e+00,-3.940532684326171875e+00,4.432127475738525391e-01
-2.504781246185302734e+00,-4.044748783111572266e+00,4.432151913642883301e-01
-2.339744091033935547e+00,-4.142399311065673828e+00,4.432127475738525391e-01
-2.170934438705444336e+00,-4.233316421508789062e+00,4.432127475738525391e-01
-1.998563885688781738e+00,-4.317373275756835938e+00,4.432127475738525391e-01
-1.822956681251525879e+00,-4.394385337829589844e+00,4.432151913642883301e-01
-1.644402384757995605e+00,-4.464272499084472656e+00,4.432127475738525391e-01
-1.463164687156677246e+00,-4.526920795440673828e+00,4.432127475738525391e-01
-1.279570221900939941e+00,-4.582196712493896484e+00,4.432151913642883301e-01
-1.093867301940917969e+00,-4.630041122436523438e+00,4.432127475738525391e-01
-9.063997268676757812e-01,-4.670365333557128906e+00,4.432127475738525391e-01
-7.174662351608276367e-01,-4.703097343444824219e+00,4.432127475738525391e-01
-5.273638963699340820e-01,-4.728188514709472656e+00,4.432151913642883301e-01
-3.363988399505615234e-01,-4.745599746704101562e+00,4.432127475738525391e-01
-1.448944807052612305e-01,-4.755290031433105469e+00,4.432127475738525391e-01
4.684162139892578125e-02,-4.757269382476806641e+00,4.432151913642883301e-01
2.385088205337524414e-01,-4.751516342163085938e+00,4.432127475738525391e-01
4.297953844070434570e-01,-4.738046646118164062e+00,4.432127475738525391e-01
6.203719377517700195e-01,-4.716873168945312500e+00,4.432127475738525391e-01
8.099437952041625977e-01,-4.688038349151611328e+00,4.432127475738525391e-01
9.982079267501831055e-01,-4.651596069335937500e+00,4.432127475738525391e-01
1.184842944145202637e+00,-4.607595920562744141e+00,4.432127475738525391e-01
1.369551897048950195e+00,-4.556107521057128906e+00,4.432127475738525391e-01
1.552044391632080078e+00,-4.497216701507568359e+00,4.432151913642883301e-01
1.731998920440673828e+00,-4.431020736694335938e+00,4.432127475738525391e-01
1.909160375595092773e+00,-4.357634544372558594e+00,4.432151913642883301e-01
2.083206415176391602e+00,-4.277157783508300781e+00,4.432151913642883301e-01
2.253867864608764648e+00,-4.189721584320068359e+00,4.432127475738525391e-01
2.420861244201660156e+00,-4.095497131347656250e+00,4.432127475738525391e-01
2.583950042724609375e+00,-3.994625091552734375e+00,4.432127475738525391e-01
2.742823123931884766e+00,-3.887261629104614258e+00,4.432127475738525391e-01
2.897233963012695312e+00,-3.773559570312500000e+00,4.432151913642883301e-01
3.046948194503784180e+00,-3.653749942779541016e+00,4.432151913642883301e-01
3.191693305969238281e+00,-3.527992725372314453e+00,4.432151913642883301e-01
3.331287384033203125e+00,-3.396503448486328125e+00,4.432127475738525391e-01
3.465464830398559570e+00,-3.259528875350952148e+00,4.432151913642883301e-01
3.593980312347412109e+00,-3.117218971252441406e+00,4.432127475738525391e-01
3.716677904129028320e+00,-2.969854354858398438e+00,4.432127475738525391e-01
3.833341121673583984e+00,-2.817669868469238281e+00,4.432151913642883301e-01
2.806824684143066406e+00,-2.458571910858154297e+00,4.432127475738525391e-01
2.903614044189453125e+00,-2.343466758728027344e+00,4.432127475738525391e-01
2.995704650878906250e+00,-2.224561691284179688e+00,4.432127475738525391e-01
3.082922220230102539e+00,-2.102040052413940430e+00,4.432127475738525391e-01
3.165110349655151367e+00,-1.976088523864746094e+00,4.432127475738525391e-01
